1.934 1.934 7.66 
1.6814 1.89158 7.492 
1.5848 1.934 7.66 
0.617061 1.85118 7.332 
0.472895 1.89158 7.492 
0.341535 1.89158 7.492 
0.210176 1.89158 7.492 
0.0788159 1.89158 7.492 
-0.157632 1.89158 7.492 
-0.385663 1.85118 7.332 
-0.514218 1.85118 7.332 
-0.629271 1.8123 7.178 
-0.822748 1.85118 7.332 
-0.990455 1.73933 6.889 
-1.13399 1.77493 7.03 
-1.25725 1.77493 7.03 
-1.3805 1.77493 7.03 
-1.50376 1.77493 7.03 
-1.62702 1.77493 7.03 
-1.71518 1.73933 6.889 
-1.83596 1.73933 6.889 
-1.95675 1.73933 6.889 
-2.03652 1.705 6.753 
-2.15493 1.705 6.753 
-2.27333 1.705 6.753 
-2.34534 1.67192 6.622 
-2.46144 1.67192 6.622 
-2.84785 1.64036 6.497 
-3.03011 1.64036 6.497 
4.20433 2.10216 8.212 
3.96491 2.05276 8.019 
3.82431 2.05276 8.019 
3.51677 2.00566 7.835 
3.37939 2.00566 7.835 
2.17575 1.96086 7.66 
1.86531 1.91785 7.492 
1.62886 1.91785 7.492 
1.4975 1.91785 7.492 
0.668483 1.87689 7.332 
0.539929 1.87689 7.332 
0.402734 1.83747 7.178 
0.221867 1.79959 7.03 
-0.151025 1.83747 7.178 
-0.295823 1.79959 7.03 
-0.410676 1.76349 6.889 
-0.542341 1.79959 7.03 
-0.665601 1.79959 7.03 
-0.862815 1.79959 7.03 
-0.947221 1.72868 6.753 
-1.08708 1.76349 6.889 
-1.18403 1.72868 6.753 
-1.35585 1.79959 7.03 
-1.44945 1.76349 6.889 
-1.53923 1.72868 6.753 
-1.73933 1.76349 6.889 
-1.8234 1.72868 6.753 
-1.98091 1.76349 6.889 
-2.02024 1.69514 6.622 
-2.09602 1.66315 6.497 
-2.25245 1.69514 6.622 
-2.32385 1.66315 6.497 
-2.43776 1.66315 6.497 
-2.59724 1.66315 6.497 
-2.6826 1.63192 6.375 
-2.8838 1.63192 6.375 
4.18987 2.08088 8.019 
3.79151 2.03313 7.835 
3.54424 2.03313 7.835 
3.33077 1.98772 7.66 
3.12636 1.94412 7.492 
2.67393 1.90261 7.332 
2.28827 1.90261 7.332 
2.03116 1.90261 7.332 
1.85118 1.90261 7.332 
1.61093 1.86264 7.178 
1.48508 1.86264 7.178 
1.38839 1.90261 7.332 
0.714904 1.82424 7.03 
0.591645 1.82424 7.03 
0.478246 1.86264 7.178 
0.338204 1.78765 6.889 
0.217417 1.78765 6.889 
-0.147911 1.82424 7.03 
-0.271171 1.82424 7.03 
-0.39443 1.82424 7.03 
-0.507306 1.78765 6.889 
-0.628093 1.78765 6.889 
-0.797195 1.78765 6.889 
-0.928846 1.71836 6.622 
-1.06562 1.75236 6.753 
-1.16106 1.71836 6.622 
-1.32866 1.78765 6.889 
-1.49187 1.75236 6.753 
-1.54923 1.68593 6.497 
-1.69514 1.71836 6.622 
-1.81125 1.71836 6.622 
-1.92735 1.71836 6.622 
-2.00489 1.68593 6.497 
-2.1188 1.68593 6.497 
-2.23272 1.68593 6.497 
-2.34663 1.68593 6.497 
-2.41434 1.65427 6.375 
-2.48015 1.62417 6.259 
-2.58989 1.62417 6.259 
-2.95086 1.65427 6.375 
3.54671 1.9704 7.492 
3.25772 1.9704 7.492 
3.05959 1.92832 7.332 
2.93104 1.92832 7.332 
2.69964 1.92832 7.332 
2.16469 1.88781 7.178 
2.03884 1.88781 7.178 
1.87354 1.84889 7.03 
1.75028 1.84889 7.03 
1.66128 1.88781 7.178 
1.48508 1.88781 7.178 
1.13399 1.84889 7.03 
0.700565 1.81181 6.889 
0.579778 1.81181 6.889 
0.468385 1.84889 7.03 
0.331527 1.77604 6.753 
0.213125 1.77604 6.753 
-0.169102 1.81181 6.889 
-0.289889 1.81181 6.889 
-0.402569 1.77604 6.753 
-0.520972 1.77604 6.753 
-0.639374 1.77604 6.753 
-0.751833 1.70871 6.497 
-0.911313 1.70871 6.497 
-1.02523 1.70871 6.497 
-1.13914 1.70871 6.497 
-1.27716 1.74159 6.622 
-1.39327 1.74159 6.622 
-1.48088 1.70871 6.497 
-1.5948 1.70871 6.497 
-1.70871 1.70871 6.497 
-1.82263 1.70871 6.497 
-1.90018 1.67663 6.375 
-2.05045 1.70871 6.497 
-2.12373 1.67663 6.375 
-2.2355 1.67663 6.375 
-2.30456 1.64612 6.259 
-2.54313 1.6164 6.146 
3.62553 1.99667 7.492 
3.49417 1.99667 7.492 
3.29099 1.95403 7.332 
3.16244 1.95403 7.332 
2.98246 1.95403 7.332 
2.74362 1.91298 7.178 
2.26797 1.87354 7.03 
2.18986 1.91298 7.178 
1.98091 1.83596 6.889 
1.78765 1.83596 6.889 
1.70098 1.87354 7.03 
1.47911 1.87354 7.03 
1.35585 1.87354 7.03 
1.06293 1.83596 6.889 
0.84551 1.83596 6.889 
0.724723 1.83596 6.889 
0.592013 1.79972 6.753 
0.483149 1.83596 6.889 
0.355208 1.79972 6.753 
0.236805 1.79972 6.753 
-0.142083 1.79972 6.753 
-0.307847 1.79972 6.753 
-0.41798 1.76481 6.622 
-0.534086 1.76481 6.622 
-0.637919 1.73149 6.497 
-0.737715 1.69898 6.375 
-0.84949 1.69898 6.375 
-0.979661 1.73149 6.497 
-1.07304 1.69898 6.375 
-1.20749 1.73149 6.497 
-1.3214 1.73149 6.497 
-1.43532 1.73149 6.497 
-1.54923 1.73149 6.497 
-1.63191 1.69898 6.375 
-1.71196 1.66807 6.259 
-1.85546 1.69898 6.375 
-1.93144 1.66807 6.259 
-2.04118 1.66807 6.259 
-2.15093 1.66807 6.259 
-2.22319 1.60917 6.038 
-2.99593 1.58118 5.933 
3.39384 1.97974 7.332 
3.14636 1.93816 7.178 
3.0205 1.93816 7.178 
2.81031 1.89819 7.03 
2.74362 1.93816 7.178 
2.48984 1.89819 7.03 
2.31911 1.86012 6.889 
2.24332 1.89819 7.03 
2.03652 1.8234 6.753 
1.91812 1.8234 6.753 
1.79972 1.8234 6.753 
1.71518 1.86012 6.889 
1.59439 1.86012 6.889 
1.32611 1.8234 6.753 
1.23203 1.86012 6.889 
1.0893 1.8234 6.753 
0.805138 1.8234 6.753 
0.686735 1.8234 6.753 
0.557307 1.78803 6.622 
0.426249 1.8234 6.753 
0.301875 1.78803 6.622 
0.185769 1.78803 6.622 
0.0683485 1.75428 6.497 
-0.136697 1.75428 6.497 
-0.255433 1.78803 6.622 
-0.364525 1.75428 6.497 
-0.478439 1.75428 6.497 
-0.58123 1.72133 6.375 
-0.693005 1.72133 6.375 
-0.80478 1.72133 6.375 
-0.916555 1.72133 6.375 
-1.02833 1.72133 6.375 
-1.14011 1.72133 6.375 
-1.2291 1.69001 6.259 
-1.36366 1.72133 6.375 
-1.47543 1.72133 6.375 
-1.53019 1.6595 6.146 
-1.63795 1.6595 6.146 
-1.71503 1.63034 6.038 
-1.8209 1.63034 6.038 
-1.96123 1.6595 6.146 
-2.03263 1.63034 6.038 
-2.10131 1.60199 5.933 
-2.24695 1.60199 5.933 
-3.02673 1.57472 5.832 
3.28541 1.88428 6.889 
3.09215 1.88428 6.889 
2.97136 1.88428 6.889 
2.85058 1.88428 6.889 
2.72979 1.88428 6.889 
2.6624 1.92285 7.03 
2.08389 1.84708 6.753 
1.88091 1.81125 6.622 
1.76481 1.81125 6.622 
1.68132 1.84708 6.753 
1.56291 1.84708 6.753 
1.44451 1.84708 6.753 
1.32611 1.84708 6.753 
1.18403 1.84708 6.753 
1.02523 1.77706 6.497 
0.88853 1.77706 6.497 
0.766298 1.81125 6.622 
0.650192 1.81125 6.622 
0.524005 1.77706 6.497 
0.40239 1.74369 6.375 
0.290615 1.74369 6.375 
0.182263 1.77706 6.497 
0.067065 1.74369 6.375 
-0.0683483 1.77706 6.497 
-0.182262 1.77706 6.497 
-0.31297 1.74369 6.375 
-0.424745 1.74369 6.375 
-0.526757 1.71196 6.259 
-0.636499 1.71196 6.259 
-0.732767 1.68105 6.146 
-0.840527 1.68105 6.146 
-1.05351 1.71196 6.259 
-1.14225 1.68105 6.146 
-1.273 1.71196 6.259 
-1.35777 1.68105 6.146 
-1.43978 1.65151 6.038 
-1.54565 1.65151 6.038 
-1.65151 1.65151 6.038 
-1.72682 1.62279 5.933 
-1.86325 1.65151 6.038 
-1.93487 1.62279 5.933 
-2.0389 1.62279 5.933 
-2.37265 1.56836 5.734 
-2.97587 1.56836 5.734 
3.48104 1.87076 6.753 
3.31527 1.87076 6.753 
3.11163 1.83447 6.622 
3.05479 1.87076 6.753 
2.93638 1.87076 6.753 
2.81798 1.87076 6.753 
2.64721 1.83447 6.622 
2.63316 1.90844 6.889 
1.93654 1.79984 6.497 
1.75428 1.79984 6.497 
1.64036 1.79984 6.497 
1.55582 1.83447 6.622 
1.43971 1.83447 6.622 
1.32361 1.83447 6.622 
1.07079 1.79984 6.497 
0.934096 1.79984 6.497 
0.74624 1.73391 6.259 
0.648295 1.76605 6.375 
0.53652 1.76605 6.375 
0.424745 1.76605 6.375 
0.31297 1.76605 6.375 
0.201195 1.76605 6.375 
0.0877928 1.73391 6.259 
-0.0223551 1.76605 6.375 
-0.13413 1.76605 6.375 
-0.32328 1.70261 6.146 
-0.438965 1.73391 6.259 
-0.529331 1.67269 6.038 
-0.635198 1.67269 6.038 
-0.741064 1.67269 6.038 
-0.862079 1.70261 6.146 
-0.952796 1.67269 6.038 
-1.05866 1.67269 6.038 
-1.16453 1.67269 6.038 
-1.2704 1.67269 6.038 
-1.35233 1.6436 5.933 
-1.48213 1.67269 6.038 
-1.56038 1.6436 5.933 
-1.6644 1.6436 5.933 
-1.73832 1.61562 5.832 
-1.84058 1.61562 5.832 
-1.91019 1.58847 5.734 
-2.19531 1.56243 5.64 
-2.2942 1.56243 5.64 
-2.87934 1.53694 5.548 
3.48104 1.89444 6.753 
3.29159 1.89444 6.753 
3.12583 1.89444 6.753 
2.94909 1.85769 6.622 
2.83298 1.85769 6.622 
2.6759 1.89444 6.753 
1.98959 1.7884 6.375 
1.79975 1.75586 6.259 
1.72134 1.7884 6.375 
1.60956 1.7884 6.375 
1.52645 1.82262 6.497 
1.41253 1.82262 6.497 
1.29862 1.82262 6.497 
1.07304 1.7884 6.375 
0.961265 1.7884 6.375 
0.818975 1.72416 6.146 
0.658447 1.75586 6.259 
0.548706 1.75586 6.259 
0.409487 1.72416 6.146 
0.307275 1.75586 6.259 
0.197534 1.75586 6.259 
0.0862078 1.72416 6.146 
-0.0658445 1.75586 6.259 
-0.232906 1.69386 6.038 
-0.338772 1.69386 6.038 
-0.444638 1.69386 6.038 
-0.540932 1.6644 5.933 
-0.644957 1.6644 5.933 
-0.748982 1.6644 5.933 
-0.838486 1.63607 5.832 
-0.957033 1.6644 5.933 
-1.07984 1.69386 6.038 
-1.16508 1.6644 5.933 
-1.26911 1.6644 5.933 
-1.34976 1.63607 5.832 
-1.47716 1.6644 5.933 
-1.55427 1.63607 5.832 
-1.60199 1.58221 5.64 
-1.70087 1.58221 5.64 
-1.79976 1.58221 5.64 
-1.89865 1.58221 5.64 
-2.04277 1.5564 5.548 
-2.14005 1.5564 5.548 
-2.23732 1.5564 5.548 
-2.3346 1.5564 5.548 
-2.85988 1.5564 5.548 
3.28619 1.81075 6.375 
3.22774 1.88091 6.622 
2.99557 1.81075 6.375 
2.8838 1.81075 6.375 
2.87942 1.88091 6.622 
2.10137 1.81075 6.375 
1.95339 1.77781 6.259 
1.81037 1.74571 6.146 
1.73391 1.77781 6.259 
1.65427 1.81075 6.375 
1.54249 1.81075 6.375 
1.40469 1.77781 6.259 
1.31894 1.81075 6.375 
1.11936 1.77781 6.259 
1.00962 1.77781 6.259 
0.899877 1.77781 6.259 
0.762237 1.71503 6.038 
0.635198 1.71503 6.038 
0.452592 1.74571 6.146 
0.344832 1.74571 6.146 
0.237072 1.74571 6.146 
0.12704 1.71503 6.038 
-0.0423467 1.71503 6.038 
-0.187245 1.68521 5.933 
-0.291271 1.68521 5.933 
-0.395296 1.68521 5.933 
-0.482573 1.62869 5.734 
-0.593075 1.65652 5.832 
-0.69533 1.65652 5.832 
-0.824396 1.62869 5.734 
-0.924933 1.62869 5.734 
-1.06106 1.68521 5.933 
-1.16508 1.68521 5.933 
-1.2475 1.65652 5.832 
-1.34976 1.65652 5.832 
-1.42761 1.62869 5.734 
-1.52815 1.62869 5.734 
-1.57585 1.57585 5.548 
-1.67313 1.57585 5.548 
-1.79976 1.60199 5.64 
-1.89865 1.60199 5.64 
-1.93379 1.55086 5.46 
-2.06781 1.55086 5.46 
-2.16354 1.55086 5.46 
-2.29757 1.55086 5.46 
-2.69481 1.52643 5.374 
-2.87196 1.55086 5.46 
3.22639 1.79975 6.259 
3.21238 1.86819 6.497 
2.98455 1.86819 6.497 
2.07902 1.83311 6.375 
1.86325 1.73621 6.038 
1.75738 1.73621 6.038 
1.68105 1.76726 6.146 
1.60222 1.79975 6.259 
1.49248 1.79975 6.259 
1.38274 1.79975 6.259 
1.10101 1.73621 6.038 
0.995143 1.73621 6.038 
0.868104 1.73621 6.038 
0.736232 1.67697 5.832 
0.644957 1.70601 5.933 
0.550505 1.73621 6.038 
0.381119 1.73621 6.038 
0.270466 1.70601 5.933 
0.16644 1.70601 5.933 
0.0624152 1.70601 5.933 
-0.100536 1.64879 5.734 
-0.204509 1.67697 5.832 
-0.306763 1.67697 5.832 
-0.409018 1.67697 5.832 
-0.49444 1.62176 5.64 
-0.603217 1.64879 5.734 
-0.692216 1.62176 5.64 
-0.791104 1.62176 5.64 
-0.889992 1.62176 5.64 
-0.98888 1.62176 5.64 
-1.1059 1.64879 5.734 
-1.18666 1.62176 5.64 
-1.28554 1.62176 5.64 
-1.38443 1.62176 5.64 
-1.48332 1.62176 5.64 
-1.53171 1.57 5.46 
-1.62744 1.57 5.46 
-1.75095 1.59531 5.548 
-1.84822 1.59531 5.548 
-1.91464 1.57 5.46 
-2.28022 1.54528 5.374 
-2.7274 1.52141 5.291 
3.35325 1.85547 6.375 
3.24148 1.85547 6.375 
3.1297 1.85547 6.375 
1.93968 1.78881 6.146 
1.67269 1.75738 6.038 
1.59485 1.78881 6.146 
1.48709 1.78881 6.146 
1.33152 1.72682 5.933 
1.2275 1.72682 5.933 
1.12347 1.72682 5.933 
1.01945 1.72682 5.933 
0.91045 1.75738 6.038 
0.777134 1.69742 5.832 
0.686567 1.72682 5.933 
0.582542 1.72682 5.933 
0.436906 1.72682 5.933 
0.332881 1.72682 5.933 
0.228856 1.72682 5.933 
0.0409017 1.69742 5.832 
-0.0804288 1.6689 5.734 
-0.180965 1.6689 5.734 
-0.276886 1.64154 5.64 
-0.375774 1.64154 5.64 
-0.46692 1.61476 5.548 
-0.583109 1.6689 5.734 
-0.672438 1.64154 5.64 
-0.758744 1.61476 5.548 
-0.870214 1.64154 5.64 
-0.969102 1.64154 5.64 
-1.05057 1.61476 5.548 
-1.16688 1.64154 5.64 
-1.24512 1.61476 5.548 
-1.36465 1.64154 5.64 
-1.39452 1.56412 5.374 
-1.48874 1.56412 5.374 
-1.6083 1.58915 5.46 
-1.70403 1.58915 5.46 
-1.77141 1.56412 5.374 
-1.83682 1.53996 5.291 
-2.02236 1.53996 5.291 
-2.11929 1.51639 5.21 
-2.60945 1.49369 5.132 
-2.74046 1.51639 5.21 
3.22639 1.84365 6.259 
3.02886 1.84365 6.259 
1.59517 1.71787 5.832 
1.51877 1.74762 5.933 
1.41474 1.74762 5.933 
1.31072 1.74762 5.933 
1.16508 1.74762 5.933 
1.04299 1.71787 5.832 
0.940741 1.71787 5.832 
0.838486 1.71787 5.832 
0.72386 1.68901 5.734 
0.613526 1.71787 5.832 
0.490821 1.71787 5.832 
0.388567 1.71787 5.832 
0.281501 1.68901 5.734 
0.0593328 1.66132 5.64 
-0.0395554 1.66132 5.64 
-0.138443 1.66132 5.64 
-0.237331 1.66132 5.64 
-0.330735 1.63422 5.548 
-0.42801 1.63422 5.548 
-0.525285 1.63422 5.548 
-0.632883 1.66132 5.64 
-0.719835 1.63422 5.548 
-0.81711 1.63422 5.548 
-0.914385 1.63422 5.548 
-1.01166 1.63422 5.548 
-1.10893 1.63422 5.548 
-1.20621 1.63422 5.548 
-1.28281 1.6083 5.46 
-1.33587 1.55852 5.291 
-1.45105 1.58297 5.374 
-1.52141 1.55852 5.291 
-1.6395 1.58297 5.374 
-1.70695 1.55852 5.291 
-1.79972 1.55852 5.291 
-1.86351 1.53466 5.21 
-1.95486 1.53466 5.21 
-2.04621 1.53466 5.21 
-2.57081 1.4893 5.056 
3.2328 1.83192 6.146 
3.03883 1.83192 6.146 
1.72065 1.6811 5.64 
1.64879 1.70911 5.734 
1.57472 1.73832 5.832 
1.47246 1.73832 5.832 
1.34976 1.73832 5.832 
1.20643 1.6811 5.64 
1.126 1.70911 5.734 
1.04299 1.73832 5.832 
0.940741 1.73832 5.832 
0.791104 1.6811 5.64 
0.703753 1.70911 5.734 
0.542895 1.70911 5.734 
0.442359 1.70911 5.734 
0.341823 1.70911 5.734 
0.217554 1.6811 5.64 
0.098888 1.6811 5.64 
-0 1.65367 5.548 
-0.0972749 1.65367 5.548 
-0.19455 1.65367 5.548 
-0.282672 1.60181 5.374 
-0.382928 1.62744 5.46 
-0.47866 1.62744 5.46 
-0.58365 1.65367 5.548 
-0.680925 1.65367 5.548 
-0.753793 1.60181 5.374 
-0.861588 1.62744 5.46 
-0.995613 1.62744 5.46 
-1.09134 1.62744 5.46 
-1.18708 1.62744 5.46 
-1.2431 1.57707 5.291 
-1.31542 1.55293 5.21 
-1.40677 1.55293 5.21 
-1.49812 1.55293 5.21 
-1.61418 1.57707 5.291 
-1.65565 1.52968 5.132 
-1.77216 1.55293 5.21 
-1.83561 1.52968 5.132 
-1.92559 1.52968 5.132 
-2.01558 1.52968 5.132 
-2.37643 1.48527 4.983 
-2.51622 1.48527 4.983 
-2.60358 1.48527 4.983 
1.76021 1.70087 5.64 
1.66132 1.70087 5.64 
1.58847 1.72922 5.734 
1.48793 1.72922 5.734 
1.36465 1.70087 5.64 
1.22566 1.67313 5.548 
1.1471 1.70087 5.64 
1.03111 1.67313 5.548 
0.889992 1.70087 5.64 
0.791104 1.70087 5.64 
0.692216 1.70087 5.64 
0.525285 1.67313 5.548 
0.42801 1.67313 5.548 
0.248903 1.64659 5.46 
0.153171 1.64659 5.46 
0.0574392 1.64659 5.46 
-0.0382929 1.64659 5.46 
-0.136185 1.67313 5.548 
-0.229757 1.64659 5.46 
-0.315414 1.59562 5.291 
-0.408183 1.59562 5.291 
-0.50881 1.62066 5.374 
-0.603035 1.62066 5.374 
-0.68649 1.59562 5.291 
-0.779259 1.59562 5.291 
-0.872027 1.59562 5.291 
-0.979931 1.62066 5.374 
-1.05757 1.59562 5.291 
-1.13272 1.5712 5.21 
-1.2431 1.59562 5.291 
-1.29573 1.54767 5.132 
-1.38571 1.54767 5.132 
-1.45384 1.52475 5.056 
-1.56567 1.54767 5.132 
-1.63113 1.52475 5.056 
-1.71978 1.52475 5.056 
-1.80843 1.52475 5.056 
-1.89708 1.52475 5.056 
-1.98573 1.52475 5.056 
-2.14927 1.50274 4.983 
-2.44542 1.48103 4.911 
-2.53152 1.48103 4.911 
3.05834 1.81004 5.933 
1.70087 1.72065 5.64 
1.57585 1.69258 5.548 
1.45513 1.66574 5.46 
1.3211 1.66574 5.46 
1.22537 1.66574 5.46 
1.14784 1.69258 5.548 
1.03391 1.66574 5.46 
0.938174 1.66574 5.46 
0.842442 1.66574 5.46 
0.758744 1.69258 5.548 
0.661469 1.69258 5.548 
0.555246 1.66574 5.46 
0.46692 1.69258 5.548 
0.204092 1.61418 5.291 
0.113069 1.6395 5.374 
0.0191465 1.66574 5.46 
-0.0753792 1.6395 5.374 
-0.207293 1.6395 5.374 
-0.292316 1.58947 5.21 
-0.383664 1.58947 5.21 
-0.482398 1.61418 5.291 
-0.575167 1.61418 5.291 
-0.65771 1.58947 5.21 
-0.749059 1.58947 5.21 
-0.840408 1.58947 5.21 
-0.931757 1.58947 5.21 
-1.02311 1.58947 5.21 
-1.08151 1.54248 5.056 
-1.18775 1.56567 5.132 
-1.27773 1.56567 5.132 
-1.328 1.52021 4.983 
-1.43611 1.54248 5.056 
-1.50274 1.52021 4.983 
-1.59011 1.52021 4.983 
-1.67748 1.52021 4.983 
-1.76485 1.52021 4.983 
-1.85221 1.52021 4.983 
-1.91156 1.49825 4.911 
-2.07147 1.4772 4.842 
-2.42804 1.4772 4.842 
-2.54689 1.4772 4.842 
1.6083 1.68488 5.46 
1.47427 1.68488 5.46 
1.31914 1.65834 5.374 
1.22491 1.65834 5.374 
1.14878 1.68488 5.46 
1.03647 1.65834 5.374 
0.95732 1.68488 5.46 
0.848017 1.65834 5.374 
0.74671 1.68488 5.46 
0.650978 1.68488 5.46 
0.555246 1.68488 5.46 
0.301517 1.65834 5.374 
0.200967 1.60774 5.21 
0.109618 1.60774 5.21 
0.0188449 1.65834 5.374 
-0.074215 1.63273 5.291 
-0.166984 1.63273 5.291 
-0.255776 1.60774 5.21 
-0.347125 1.60774 5.21 
-0.431909 1.58367 5.132 
-0.52189 1.58367 5.132 
-0.60281 1.56021 5.056 
-0.701852 1.58367 5.132 
-0.803868 1.60774 5.21 
-0.868756 1.56021 5.056 
-0.957404 1.56021 5.056 
-1.04605 1.56021 5.056 
-1.11832 1.53769 4.983 
-1.20569 1.53769 4.983 
-1.27437 1.51547 4.911 
-1.36048 1.51547 4.911 
-1.44658 1.51547 4.911 
-1.53269 1.51547 4.911 
-1.6188 1.51547 4.911 
-1.7049 1.51547 4.911 
-1.76585 1.49418 4.842 
-1.85074 1.49418 4.842 
-1.93564 1.49418 4.842 
-1.99216 1.47319 4.774 
-2.14283 1.47319 4.774 
-2.41068 1.47319 4.774 
-2.4599 1.45283 4.708 
1.59562 1.65129 5.291 
1.44719 1.65129 5.291 
1.29715 1.62601 5.21 
1.2058 1.62601 5.21 
1.11445 1.62601 5.21 
1.05531 1.67719 5.374 
0.946243 1.65129 5.291 
0.866862 1.67719 5.374 
0.760705 1.65129 5.291 
0.621879 1.67719 5.374 
0.500952 1.65129 5.291 
0.310585 1.62601 5.21 
0.215955 1.60166 5.132 
0.127888 1.62601 5.21 
0.0365394 1.62601 5.21 
-0.0548091 1.62601 5.21 
-0.14397 1.60166 5.132 
-0.233951 1.60166 5.132 
-0.323932 1.60166 5.132 
-0.413913 1.60166 5.132 
-0.503894 1.60166 5.132 
-0.58508 1.57794 5.056 
-0.673729 1.57794 5.056 
-0.773837 1.60166 5.132 
-0.838738 1.55516 4.983 
-0.926107 1.55516 4.983 
-1.01348 1.55516 4.983 
-1.10084 1.55516 4.983 
-1.18821 1.55516 4.983 
-1.25715 1.53269 4.911 
-1.34326 1.53269 4.911 
-1.42936 1.53269 4.911 
-1.49418 1.51116 4.842 
-1.60158 1.53269 4.911 
-1.68768 1.53269 4.911 
-1.72431 1.48993 4.774 
-1.80801 1.48993 4.774 
-1.88207 1.46934 4.708 
-1.99764 1.46934 4.708 
-2.17924 1.46934 4.708 
-2.34554 1.44967 4.645 
-2.4599 1.46934 4.708 
1.5712 1.64428 5.21 
1.47985 1.64428 5.21 
1.33172 1.61966 5.132 
1.24174 1.61966 5.132 
1.15176 1.61966 5.132 
1.07791 1.64428 5.21 
1.0019 1.66984 5.291 
0.895217 1.64428 5.21 
0.785599 1.64428 5.21 
0.705043 1.66984 5.291 
0.602901 1.64428 5.21 
0.511553 1.64428 5.21 
0.420204 1.64428 5.21 
0.328855 1.64428 5.21 
0.233951 1.61966 5.132 
0.141838 1.59567 5.056 
0.0354594 1.59567 5.056 
-0.0539885 1.61966 5.132 
-0.141838 1.59567 5.056 
-0.233951 1.61966 5.132 
-0.319135 1.59567 5.056 
-0.401895 1.57263 4.983 
-0.489264 1.57263 4.983 
-0.576633 1.57263 4.983 
-0.664001 1.57263 4.983 
-0.75137 1.57263 4.983 
-0.815005 1.52814 4.842 
-0.912726 1.54991 4.911 
-0.998832 1.54991 4.911 
-1.08494 1.54991 4.911 
-1.17104 1.54991 4.911 
-1.23949 1.52814 4.842 
-1.30578 1.50667 4.774 
-1.38949 1.50667 4.774 
-1.49418 1.52814 4.842 
-1.5569 1.50667 4.774 
-1.66397 1.52814 4.842 
-1.72431 1.50667 4.774 
-1.78301 1.48584 4.708 
-1.8406 1.46596 4.645 
-1.94811 1.48584 4.708 
-2.03606 1.46596 4.645 
-2.39386 1.48584 4.708 
-2.44327 1.46596 4.645 
1.56567 1.63766 5.132 
1.49812 1.66255 5.21 
1.25881 1.6134 5.056 
1.11697 1.6134 5.056 
1.02832 1.6134 5.056 
0.968296 1.66255 5.21 
0.876947 1.66255 5.21 
0.773837 1.63766 5.132 
0.66586 1.63766 5.132 
0.575879 1.63766 5.132 
0.467902 1.63766 5.132 
0.377921 1.63766 5.132 
0.28794 1.63766 5.132 
0.192211 1.59011 4.983 
0.0886485 1.6134 5.056 
-0 1.59011 4.983 
-0.0873686 1.59011 4.983 
-0.177297 1.6134 5.056 
-0.262106 1.59011 4.983 
-0.349474 1.59011 4.983 
-0.430531 1.56713 4.911 
-0.516637 1.56713 4.911 
-0.602743 1.56713 4.911 
-0.68885 1.56713 4.911 
-0.764068 1.54511 4.842 
-0.837041 1.52342 4.774 
-0.93386 1.54511 4.842 
-1.01876 1.54511 4.842 
-1.08815 1.52342 4.774 
-1.17186 1.52342 4.774 
-1.2382 1.50235 4.708 
-1.32075 1.50235 4.708 
-1.4033 1.50235 4.708 
-1.48584 1.50235 4.708 
-1.56839 1.50235 4.708 
-1.65094 1.50235 4.708 
-1.73349 1.50235 4.708 
-1.76743 1.46215 4.582 
-1.87317 1.48225 4.645 
-1.95462 1.48225 4.645 
-2.26757 1.443 4.522 
-2.378 1.46215 4.582 
1.56567 1.65565 5.132 
1.43284 1.60758 4.983 
1.17104 1.58435 4.911 
1.11697 1.63113 5.056 
1.01348 1.60758 4.983 
0.953799 1.65565 5.132 
0.863818 1.65565 5.132 
0.75137 1.60758 4.983 
0.673729 1.63113 5.056 
0.58508 1.63113 5.056 
0.489264 1.60758 4.983 
0.401896 1.60758 4.983 
0.309982 1.58435 4.911 
0.223876 1.58435 4.911 
0.13979 1.60758 4.983 
0.0516638 1.58435 4.911 
-0.0349476 1.60758 4.983 
-0.120549 1.58435 4.911 
-0.209685 1.60758 4.983 
-0.292761 1.58435 4.911 
-0.390523 1.56209 4.842 
-0.482195 1.58435 4.911 
-0.568301 1.58435 4.911 
-0.627357 1.51886 4.708 
-0.709903 1.51886 4.708 
-0.80356 1.54016 4.774 
-0.887264 1.54016 4.774 
-0.957544 1.51886 4.708 
-1.05467 1.54016 4.774 
-1.12264 1.51886 4.708 
-1.20519 1.51886 4.708 
-1.2705 1.49854 4.645 
-1.35194 1.49854 4.645 
-1.43339 1.49854 4.645 
-1.51483 1.49854 4.645 
-1.59627 1.49854 4.645 
-1.67771 1.49854 4.645 
-1.71257 1.45886 4.522 
-1.8406 1.49854 4.645 
-1.87114 1.45886 4.522 
-2.19104 1.43982 4.463 
-2.34686 1.45886 4.522 
1.48103 1.60158 4.911 
1.36048 1.60158 4.911 
1.23949 1.57907 4.842 
1.17104 1.60158 4.911 
1.08494 1.60158 4.911 
0.998832 1.60158 4.911 
0.926107 1.62506 4.983 
0.833296 1.64886 5.056 
0.68885 1.60158 4.911 
0.61158 1.62506 4.983 
0.509378 1.57907 4.842 
0.430531 1.60158 4.911 
0.339586 1.57907 4.842 
0.254689 1.57907 4.842 
0.169793 1.57907 4.842 
0.0861062 1.60158 4.911 
-0 1.60158 4.911 
-0.101876 1.57907 4.842 
-0.186772 1.57907 4.842 
-0.271669 1.57907 4.842 
-0.368298 1.5569 4.774 
-0.458441 1.57907 4.842 
-0.543337 1.57907 4.842 
-0.602673 1.51483 4.645 
-0.693394 1.53537 4.708 
-0.786819 1.5569 4.774 
-0.858488 1.53537 4.708 
-0.928443 1.51483 4.645 
-1.02358 1.53537 4.708 
-1.09133 1.51483 4.645 
-1.17277 1.51483 4.645 
-1.25421 1.51483 4.645 
-1.33565 1.51483 4.645 
-1.39788 1.49428 4.582 
-1.47821 1.49428 4.582 
-1.55855 1.49428 4.582 
-1.63889 1.49428 4.582 
-1.67458 1.45547 4.463 
-1.75283 1.45547 4.463 
-1.80728 1.43656 4.405 
-2.18082 1.4183 4.349 
-2.31624 1.45547 4.463 
1.52814 1.59605 4.842 
1.34136 1.59605 4.842 
1.23882 1.57364 4.774 
1.13761 1.59605 4.842 
1.05272 1.59605 4.842 
0.967819 1.59605 4.842 
0.882923 1.59605 4.842 
0.71313 1.59605 4.842 
0.637186 1.6188 4.911 
0.535706 1.57364 4.774 
0.458441 1.59605 4.842 
0.373544 1.59605 4.842 
0.284594 1.57364 4.774 
0.20089 1.57364 4.774 
0.117186 1.57364 4.774 
0.0339585 1.59605 4.842 
-0.0502224 1.57364 4.774 
-0.133926 1.57364 4.774 
-0.217631 1.57364 4.774 
-0.297169 1.55188 4.708 
-0.379716 1.55188 4.708 
-0.462263 1.55188 4.708 
-0.530229 1.51035 4.582 
-0.618962 1.53112 4.645 
-0.700404 1.53112 4.645 
-0.781846 1.53112 4.645 
-0.863289 1.53112 4.645 
-0.931918 1.51035 4.582 
-1.02617 1.53112 4.645 
-1.10762 1.53112 4.645 
-1.17293 1.51035 4.582 
-1.23686 1.49057 4.522 
-1.35194 1.53112 4.645 
-1.37722 1.47112 4.463 
-1.45547 1.47112 4.463 
-1.53372 1.47112 4.463 
-1.61198 1.47112 4.463 
-1.66826 1.45201 4.405 
-1.72331 1.43355 4.349 
-2.07844 1.41575 4.295 
-2.18082 1.43355 4.349 
-2.28614 1.45201 4.405 
1.50667 1.59038 4.774 
1.35377 1.56839 4.708 
1.2382 1.56839 4.708 
1.07311 1.56839 4.708 
1.00445 1.59038 4.774 
0.908016 1.56839 4.708 
0.848964 1.61303 4.842 
0.696151 1.61303 4.842 
0.594338 1.56839 4.708 
0.504943 1.5474 4.645 
0.435262 1.59038 4.774 
0.346697 1.56839 4.708 
0.26415 1.56839 4.708 
0.176743 1.52642 4.582 
0.0977309 1.5474 4.645 
0.0165095 1.56839 4.708 
-0.0660375 1.56839 4.708 
-0.148584 1.56839 4.708 
-0.228038 1.5474 4.645 
-0.309481 1.5474 4.645 
-0.390923 1.5474 4.645 
-0.459857 1.50643 4.522 
-0.532109 1.48677 4.463 
-0.618429 1.50643 4.522 
-0.706972 1.52642 4.582 
-0.766862 1.48677 4.463 
-0.856286 1.50643 4.522 
-0.935572 1.50643 4.522 
-1.03071 1.50643 4.522 
-1.12473 1.52642 4.582 
-1.17377 1.48677 4.463 
-1.25202 1.48677 4.463 
-1.33027 1.48677 4.463 
-1.40852 1.48677 4.463 
-1.48677 1.48677 4.463 
-1.54469 1.46745 4.405 
-1.62192 1.46745 4.405 
-1.65672 1.43081 4.295 
-1.97795 1.41282 4.241 
-2.07844 1.43081 4.295 
-2.15374 1.43081 4.295 
-2.25707 1.4488 4.349 
1.51886 1.5849 4.708 
1.4171 1.56369 4.645 
1.30424 1.5849 4.708 
1.20535 1.56369 4.645 
1.1239 1.56369 4.645 
1.02832 1.54248 4.582 
0.961019 1.56369 4.645 
0.879577 1.56369 4.645 
0.8203 1.60712 4.774 
0.709904 1.5849 4.708 
0.618962 1.56369 4.645 
0.537519 1.56369 4.645 
0.456077 1.56369 4.645 
0.369554 1.54248 4.582 
0.289216 1.54248 4.582 
0.21175 1.56369 4.645 
0.12854 1.54248 4.582 
0.0488654 1.56369 4.645 
-0.0325771 1.56369 4.645 
-0.112473 1.54248 4.582 
-0.192811 1.54248 4.582 
-0.273148 1.54248 4.582 
-0.353486 1.54248 4.582 
-0.422557 1.50242 4.463 
-0.4943 1.4829 4.405 
-0.579059 1.50242 4.463 
-0.657311 1.50242 4.463 
-0.735562 1.50242 4.463 
-0.824572 1.52229 4.522 
-0.892065 1.50242 4.463 
-0.970316 1.50242 4.463 
-1.04857 1.50242 4.463 
-1.12682 1.50242 4.463 
-1.18941 1.4829 4.405 
-1.26664 1.4829 4.405 
-1.34388 1.4829 4.405 
-1.42111 1.4829 4.405 
-1.4793 1.46405 4.349 
-1.57558 1.4829 4.405 
-1.59128 1.42769 4.241 
-1.71025 1.42769 4.241 
-1.78461 1.42769 4.241 
-1.91008 1.41052 4.19 
-2.00769 1.42769 4.241 
-2.05701 1.41052 4.19 
-2.15641 1.42769 4.241 
-2.28757 1.46405 4.349 
2.49595 1.64699 4.842 
1.43001 1.55855 4.582 
1.34967 1.55855 4.582 
1.26934 1.55855 4.582 
1.15686 1.55855 4.582 
1.07653 1.55855 4.582 
0.996188 1.55855 4.582 
0.928443 1.57998 4.645 
0.847 1.57998 4.645 
0.742922 1.60141 4.708 
0.642702 1.55855 4.582 
0.562364 1.55855 4.582 
0.482026 1.55855 4.582 
0.401689 1.55855 4.582 
0.321351 1.55855 4.582 
0.237857 1.53814 4.522 
0.158571 1.53814 4.522 
0.0803377 1.55855 4.582 
-0 1.53814 4.522 
-0.0792857 1.53814 4.522 
-0.160675 1.55855 4.582 
-0.234754 1.51807 4.463 
-0.308937 1.49835 4.405 
-0.386172 1.49835 4.405 
-0.463406 1.49835 4.405 
-0.533767 1.4793 4.349 
-0.640521 1.4793 4.349 
-0.726003 1.49835 4.405 
-0.813813 1.51807 4.463 
-0.880472 1.49835 4.405 
-0.957706 1.49835 4.405 
-1.03494 1.49835 4.405 
-1.11217 1.49835 4.405 
-1.18941 1.49835 4.405 
-1.25054 1.4793 4.349 
-1.32679 1.4793 4.349 
-1.40305 1.4793 4.349 
-1.44256 1.44256 4.241 
-1.53624 1.46093 4.295 
-1.59128 1.44256 4.241 
-1.70438 1.42521 4.19 
-1.75621 1.40787 4.139 
-1.93037 1.40787 4.139 
-2.02762 1.42521 4.19 
-2.10109 1.42521 4.19 
-2.20102 1.44256 4.241 
2.42688 1.61792 4.708 
1.46215 1.57462 4.582 
1.36371 1.554 4.522 
1.30147 1.57462 4.582 
1.17377 1.53373 4.463 
1.11 1.554 4.522 
1.03071 1.554 4.522 
0.964053 1.57462 4.582 
0.883715 1.57462 4.582 
0.803377 1.57462 4.582 
0.681857 1.554 4.522 
0.602572 1.554 4.522 
0.516458 1.53373 4.463 
0.444 1.554 4.522 
0.359956 1.53373 4.463 
0.281705 1.53373 4.463 
0.206143 1.554 4.522 
0.125202 1.53373 4.463 
0.0469508 1.53373 4.463 
-0.0317144 1.554 4.522 
-0.109552 1.53373 4.463 
-0.187803 1.53373 4.463 
-0.262597 1.51379 4.405 
-0.335511 1.49455 4.349 
-0.417066 1.51379 4.405 
-0.488016 1.49455 4.349 
-0.550256 1.45743 4.241 
-0.632568 1.47599 4.295 
-0.726003 1.51379 4.405 
-0.803237 1.51379 4.405 
-0.869278 1.49455 4.349 
-0.945531 1.49455 4.349 
-1.0091 1.47599 4.295 
-1.0844 1.47599 4.295 
-1.15971 1.47599 4.295 
-1.23501 1.47599 4.295 
-1.31032 1.47599 4.295 
-1.38562 1.47599 4.295 
-1.42521 1.43991 4.19 
-1.49868 1.43991 4.19 
-1.67764 1.4052 4.089 
-1.83536 1.4052 4.089 
-1.90705 1.4052 4.089 
-2.00294 1.42238 4.139 
-2.07552 1.42238 4.139 
-2.20102 1.45743 4.241 
2.42688 1.63443 4.708 
1.45547 1.54938 4.463 
1.37722 1.54938 4.463 
1.29897 1.54938 4.463 
1.20486 1.52924 4.405 
1.15757 1.56986 4.522 
1.07829 1.56986 4.522 
0.985966 1.54938 4.463 
0.919715 1.56986 4.522 
0.840429 1.56986 4.522 
0.751212 1.54938 4.463 
0.664215 1.52924 4.405 
0.59471 1.54938 4.463 
0.509747 1.52924 4.405 
0.438207 1.54938 4.463 
0.355278 1.52924 4.405 
0.278044 1.52924 4.405 
0.200809 1.52924 4.405 
0.123575 1.52924 4.405 
0.0463406 1.52924 4.405 
-0.0308939 1.52924 4.405 
-0.108128 1.52924 4.405 
-0.185363 1.52924 4.405 
-0.259259 1.5098 4.349 
-0.335511 1.5098 4.349 
-0.411763 1.5098 4.349 
-0.481956 1.49105 4.295 
-0.550256 1.47231 4.241 
-0.624615 1.47231 4.241 
-0.716773 1.5098 4.349 
-0.783179 1.49105 4.295 
-0.847691 1.47231 4.241 
-0.92205 1.47231 4.241 
-0.996409 1.47231 4.241 
-1.07077 1.47231 4.241 
-1.14513 1.47231 4.241 
-1.21949 1.47231 4.241 
-1.29384 1.47231 4.241 
-1.35175 1.4546 4.19 
-1.42521 1.4546 4.19 
-1.46255 1.41954 4.089 
-1.54458 1.40287 4.041 
-1.61543 1.40287 4.041 
-1.68628 1.40287 4.041 
-1.85633 1.40287 4.041 
-1.92718 1.40287 4.041 
-2.02177 1.41954 4.089 
-2.11906 1.4369 4.139 
2.39406 1.60675 4.582 
2.34554 1.62885 4.645 
1.39022 1.54469 4.405 
1.31298 1.54469 4.405 
1.23575 1.54469 4.405 
1.14379 1.52505 4.349 
1.06753 1.52505 4.349 
1.00405 1.54469 4.405 
0.926812 1.54469 4.405 
0.860764 1.56503 4.463 
0.772343 1.54469 4.405 
0.695109 1.54469 4.405 
0.61002 1.52505 4.349 
0.533767 1.52505 4.349 
0.463406 1.54469 4.405 
0.386172 1.54469 4.405 
0.30501 1.52505 4.349 
0.228757 1.52505 4.349 
0.154469 1.54469 4.405 
0.0762525 1.52505 4.349 
-0 1.54469 4.405 
-0.0772343 1.54469 4.405 
-0.150611 1.50611 4.295 
-0.223077 1.48718 4.241 
-0.297435 1.48718 4.241 
-0.376528 1.50611 4.295 
-0.446153 1.48718 4.241 
-0.514253 1.46929 4.19 
-0.587717 1.46929 4.19 
-0.677751 1.50611 4.295 
-0.743589 1.48718 4.241 
-0.817948 1.48718 4.241 
-0.892306 1.48718 4.241 
-0.955041 1.46929 4.19 
-1.02851 1.46929 4.19 
-1.10197 1.46929 4.19 
-1.17543 1.46929 4.19 
-1.2489 1.46929 4.19 
-1.29049 1.43388 4.089 
-1.36218 1.43388 4.089 
-1.41704 1.41704 4.041 
-1.4879 1.41704 4.041 
-1.54062 1.40056 3.994 
-1.61065 1.40056 3.994 
-1.68068 1.40056 3.994 
-1.77871 1.40056 3.994 
-1.84874 1.40056 3.994 
-1.91877 1.40056 3.994 
-1.9888 1.40056 3.994 
-2.13357 1.45141 4.139 
2.37812 1.64514 4.645 
1.40069 1.52117 4.295 
1.34204 1.5403 4.349 
1.26579 1.5403 4.349 
1.18954 1.5403 4.349 
1.11329 1.5403 4.349 
1.03703 1.5403 4.349 
0.973153 1.56013 4.405 
0.884529 1.5403 4.349 
0.808276 1.5403 4.349 
0.732024 1.5403 4.349 
0.655771 1.5403 4.349 
0.579519 1.5403 4.349 
0.503266 1.5403 4.349 
0.427014 1.5403 4.349 
0.350761 1.5403 4.349 
0.274509 1.5403 4.349 
0.191008 1.48399 4.19 
0.120489 1.52117 4.295 
0.0446154 1.50205 4.241 
-0.0301224 1.52117 4.295 
-0.104103 1.50205 4.241 
-0.178461 1.50205 4.241 
-0.24978 1.48399 4.19 
-0.327179 1.50205 4.241 
-0.396709 1.48399 4.19 
-0.470174 1.48399 4.19 
-0.543639 1.48399 4.19 
-0.617103 1.48399 4.19 
-0.698974 1.50205 4.241 
-0.764033 1.48399 4.19 
-0.837497 1.48399 4.19 
-0.899874 1.46592 4.139 
-0.960697 1.44821 4.089 
-1.05789 1.48399 4.19 
-1.11759 1.46592 4.139 
-1.14846 1.41457 3.994 
-1.23283 1.43121 4.041 
-1.30368 1.43121 4.041 
-1.37453 1.43121 4.041 
-1.42857 1.41457 3.994 
-1.4986 1.41457 3.994 
-1.59664 1.41457 3.994 
-1.64747 1.39828 3.948 
-1.74438 1.39828 3.948 
-1.81361 1.39828 3.948 
-1.90477 1.41457 3.994 
-1.97479 1.41457 3.994 
-2.06888 1.43121 4.041 
2.30158 1.57558 4.405 
2.31373 1.63889 4.582 
1.37056 1.53624 4.295 
1.29526 1.53624 4.295 
1.20461 1.51692 4.241 
1.13025 1.51692 4.241 
1.06934 1.53624 4.295 
1.00653 1.55555 4.349 
0.918729 1.53624 4.295 
0.854028 1.55555 4.349 
0.758461 1.51692 4.241 
0.692812 1.53624 4.295 
0.617507 1.53624 4.295 
0.542201 1.53624 4.295 
0.461025 1.51692 4.241 
0.386666 1.51692 4.241 
0.312307 1.51692 4.241 
0.237948 1.51692 4.241 
0.16359 1.51692 4.241 
0.0881577 1.49868 4.19 
0.014693 1.49868 4.19 
-0.0587717 1.49868 4.19 
-0.132236 1.49868 4.19 
-0.205701 1.49868 4.19 
-0.279166 1.49868 4.19 
-0.348338 1.48044 4.139 
-0.420909 1.48044 4.139 
-0.493479 1.48044 4.139 
-0.56605 1.48044 4.139 
-0.63862 1.48044 4.139 
-0.71119 1.48044 4.139 
-0.783761 1.48044 4.139 
-0.856331 1.48044 4.139 
-0.928902 1.48044 4.139 
-0.989374 1.46255 4.089 
-1.04861 1.44538 4.041 
-1.11946 1.44538 4.041 
-1.17647 1.42857 3.994 
-1.2465 1.42857 3.994 
-1.31653 1.42857 3.994 
-1.38656 1.42857 3.994 
-1.43981 1.41212 3.948 
-1.49183 1.39603 3.903 
-1.57825 1.41212 3.948 
-1.6287 1.39603 3.903 
-1.678 1.38029 3.859 
-1.76556 1.39603 3.903 
-1.81332 1.38029 3.859 
-1.90243 1.39603 3.903 
-2.01681 1.42857 3.994 
2.31703 1.59103 4.405 
2.29929 1.63329 4.522 
1.32359 1.53179 4.241 
1.24923 1.53179 4.241 
1.17487 1.53179 4.241 
1.10051 1.53179 4.241 
1.01381 1.51337 4.19 
0.951793 1.53179 4.241 
0.877435 1.53179 4.241 
0.793418 1.51337 4.19 
0.719954 1.51337 4.19 
0.646489 1.51337 4.19 
0.579999 1.53179 4.241 
0.49956 1.51337 4.19 
0.426095 1.51337 4.19 
0.35263 1.51337 4.19 
0.279166 1.51337 4.19 
0.205701 1.51337 4.19 
0.132236 1.51337 4.19 
0.057355 1.47689 4.089 
-0.014693 1.51337 4.19 
-0.0870846 1.49495 4.139 
-0.157726 1.47689 4.089 
-0.232226 1.49495 4.139 
-0.304796 1.49495 4.139 
-0.368432 1.45956 4.041 
-0.444502 1.47689 4.089 
-0.516195 1.47689 4.089 
-0.587889 1.47689 4.089 
-0.65184 1.45956 4.041 
-0.731277 1.47689 4.089 
-0.802971 1.47689 4.089 
-0.874664 1.47689 4.089 
-0.935249 1.45956 4.041 
-1.0061 1.45956 4.041 
-1.06443 1.44258 3.994 
-1.13446 1.44258 3.994 
-1.19061 1.42596 3.948 
-1.25983 1.42596 3.948 
-1.32905 1.42596 3.948 
-1.39828 1.42596 3.948 
-1.43442 1.39382 3.859 
-1.50208 1.39382 3.859 
-1.56974 1.39382 3.859 
-1.6374 1.39382 3.859 
-1.70506 1.39382 3.859 
-1.77272 1.39382 3.859 
-1.81988 1.37829 3.816 
-1.90804 1.39382 3.859 
-2.02127 1.42596 3.948 
2.27069 1.60647 4.405 
1.29175 1.50947 4.139 
1.23421 1.52807 4.19 
1.16074 1.52807 4.19 
1.08728 1.52807 4.19 
1.00147 1.50947 4.139 
0.940348 1.52807 4.19 
0.856331 1.50947 4.139 
0.783761 1.50947 4.139 
0.71119 1.50947 4.139 
0.63862 1.50947 4.139 
0.56605 1.50947 4.139 
0.481795 1.47373 4.041 
0.420909 1.50947 4.139 
0.348338 1.50947 4.139 
0.275768 1.50947 4.139 
0.203197 1.50947 4.139 
0.130627 1.50947 4.139 
0.0566817 1.47373 4.041 
-0.0143388 1.49123 4.089 
-0.0860326 1.49123 4.089 
-0.155875 1.47373 4.041 
-0.22942 1.49123 4.089 
-0.301114 1.49123 4.089 
-0.368432 1.47373 4.041 
-0.439284 1.47373 4.041 
-0.510136 1.47373 4.041 
-0.580988 1.47373 4.041 
-0.644259 1.45659 3.994 
-0.722692 1.47373 4.041 
-0.784315 1.45659 3.994 
-0.854343 1.45659 3.994 
-0.935249 1.47373 4.041 
-0.982947 1.43981 3.948 
-1.04018 1.4234 3.903 
-1.12139 1.43981 3.948 
-1.17704 1.4234 3.903 
-1.23143 1.40735 3.859 
-1.31391 1.4234 3.903 
-1.38234 1.4234 3.903 
-1.41843 1.39167 3.816 
-1.48534 1.39167 3.816 
-1.55225 1.39167 3.816 
-1.61915 1.39167 3.816 
-1.68606 1.39167 3.816 
-1.75297 1.39167 3.816 
-1.81988 1.39167 3.816 
-1.88678 1.39167 3.816 
-1.99823 1.4234 3.903 
2.21399 1.58142 4.295 
1.26117 1.4879 4.041 
1.21918 1.52398 4.139 
1.13276 1.50557 4.089 
1.07404 1.52398 4.139 
0.989374 1.50557 4.089 
0.928902 1.52398 4.139 
0.845987 1.50557 4.089 
0.774293 1.50557 4.089 
0.702599 1.50557 4.089 
0.630905 1.50557 4.089 
0.559212 1.50557 4.089 
0.476191 1.47059 3.994 
0.420909 1.52398 4.139 
0.348338 1.52398 4.139 
0.272436 1.50557 4.089 
0.198386 1.4879 4.041 
0.126051 1.47059 3.994 
0.0560225 1.47059 3.994 
-0.0141705 1.4879 4.041 
-0.0850227 1.4879 4.041 
-0.155875 1.4879 4.041 
-0.226727 1.4879 4.041 
-0.294118 1.47059 3.994 
-0.359952 1.45365 3.948 
-0.429174 1.45365 3.948 
-0.504203 1.47059 3.994 
-0.574231 1.47059 3.994 
-0.636839 1.45365 3.948 
-0.714287 1.47059 3.994 
-0.775282 1.45365 3.948 
-0.844504 1.45365 3.948 
-0.893127 1.42088 3.859 
-0.971743 1.43708 3.903 
-1.02845 1.42088 3.859 
-1.09611 1.42088 3.859 
-1.16377 1.42088 3.859 
-1.21771 1.40505 3.816 
-1.28462 1.40505 3.816 
-1.35153 1.40505 3.816 
-1.41843 1.40505 3.816 
-1.46899 1.38959 3.774 
-1.53516 1.38959 3.774 
-1.60133 1.38959 3.774 
-1.6675 1.38959 3.774 
-1.73368 1.38959 3.774 
-1.79985 1.38959 3.774 
-1.88678 1.40505 3.816 
-1.97571 1.42088 3.859 
2.17128 1.57641 4.241 
1.30483 1.51991 4.089 
1.21866 1.50207 4.041 
1.14781 1.50207 4.041 
1.07695 1.50207 4.041 
1.0061 1.50207 4.041 
0.946358 1.51991 4.089 
0.864397 1.50207 4.041 
0.793545 1.50207 4.041 
0.722692 1.50207 4.041 
0.65184 1.50207 4.041 
0.574231 1.4846 3.994 
0.504203 1.4846 3.994 
0.439284 1.50207 4.041 
0.368432 1.50207 4.041 
0.294118 1.4846 3.994 
0.22409 1.4846 3.994 
0.154062 1.4846 3.994 
0.083066 1.4675 3.948 
0.0140057 1.4846 3.994 
-0.0560225 1.4846 3.994 
-0.126051 1.4846 3.994 
-0.196079 1.4846 3.994 
-0.263042 1.4675 3.948 
-0.328476 1.45077 3.903 
-0.401485 1.4675 3.948 
-0.470707 1.4675 3.948 
-0.539928 1.4675 3.948 
-0.602207 1.45077 3.903 
-0.663079 1.43442 3.859 
-0.739072 1.45077 3.903 
-0.798401 1.43442 3.859 
-0.866062 1.43442 3.859 
-0.933724 1.43442 3.859 
-1.00138 1.43442 3.859 
-1.05713 1.41843 3.816 
-1.12404 1.41843 3.816 
-1.19095 1.41843 3.816 
-1.25786 1.41843 3.816 
-1.2956 1.38721 3.732 
-1.37635 1.40282 3.774 
-1.44252 1.40282 3.774 
-1.4919 1.38721 3.732 
-1.54065 1.37234 3.692 
-1.60538 1.37234 3.692 
-1.67011 1.37234 3.692 
-1.73485 1.37234 3.692 
-1.86002 1.41843 3.816 
-1.92693 1.41843 3.816 
2.14517 1.57214 4.19 
1.27451 1.4986 3.994 
1.19061 1.48134 3.948 
1.13446 1.4986 3.994 
1.06443 1.4986 3.994 
0.9944 1.4986 3.994 
0.924371 1.4986 3.994 
0.854343 1.4986 3.994 
0.784315 1.4986 3.994 
0.714287 1.4986 3.994 
0.644259 1.4986 3.994 
0.574231 1.4986 3.994 
0.504203 1.4986 3.994 
0.434175 1.4986 3.994 
0.364146 1.4986 3.994 
0.290731 1.48134 3.948 
0.221509 1.48134 3.948 
0.150552 1.46446 3.903 
0.0821192 1.46446 3.903 
0.0138444 1.48134 3.948 
-0.0553772 1.48134 3.948 
-0.123179 1.46446 3.903 
-0.19382 1.48134 3.948 
-0.260044 1.46446 3.903 
-0.324773 1.44795 3.859 
-0.396909 1.46446 3.903 
-0.465342 1.46446 3.903 
-0.527757 1.44795 3.859 
-0.602207 1.46446 3.903 
-0.663079 1.44795 3.859 
-0.73074 1.44795 3.859 
-0.789505 1.43181 3.816 
-0.856412 1.43181 3.816 
-0.923319 1.43181 3.816 
-0.990227 1.43181 3.816 
-1.05713 1.43181 3.816 
-1.0993 1.4003 3.732 
-1.17784 1.41606 3.774 
-1.23017 1.4003 3.732 
-1.28171 1.38529 3.692 
-1.34645 1.38529 3.692 
-1.42647 1.4003 3.732 
-1.47591 1.38529 3.692 
-1.52437 1.37065 3.653 
-1.58842 1.37065 3.653 
-1.67011 1.38529 3.692 
-1.73485 1.38529 3.692 
-1.81908 1.4003 3.732 
-1.90572 1.41606 3.774 
2.11906 1.56752 4.139 
1.25983 1.49519 3.948 
1.19061 1.49519 3.948 
1.12139 1.49519 3.948 
1.05217 1.49519 3.948 
0.9944 1.51261 3.994 
0.913725 1.49519 3.948 
0.844504 1.49519 3.948 
0.766445 1.47814 3.903 
0.70606 1.49519 3.948 
0.636839 1.49519 3.948 
0.567617 1.49519 3.948 
0.498396 1.49519 3.948 
0.429174 1.49519 3.948 
0.359952 1.49519 3.948 
0.287417 1.47814 3.903 
0.221509 1.49519 3.948 
0.148855 1.46148 3.859 
0.0802887 1.4452 3.816 
0.0135323 1.46148 3.859 
-0.0541289 1.46148 3.859 
-0.12179 1.46148 3.859 
-0.189451 1.46148 3.859 
-0.257112 1.46148 3.859 
-0.321155 1.4452 3.816 
-0.392435 1.46148 3.859 
-0.460096 1.46148 3.859 
-0.521876 1.4452 3.816 
-0.595418 1.46148 3.859 
-0.655691 1.4452 3.816 
-0.722598 1.4452 3.816 
-0.772126 1.41338 3.732 
-0.846986 1.42929 3.774 
-0.913157 1.42929 3.774 
-0.968429 1.41338 3.732 
-1.0455 1.42929 3.774 
-1.08752 1.39823 3.692 
-1.16473 1.41338 3.732 
-1.21698 1.39823 3.692 
-1.26818 1.38346 3.653 
-1.34645 1.39823 3.692 
-1.41118 1.39823 3.692 
-1.46032 1.38346 3.653 
-1.52437 1.38346 3.653 
-1.57146 1.36869 3.614 
-1.65247 1.38346 3.653 
-1.71652 1.38346 3.653 
-1.79958 1.39823 3.692 
-1.88451 1.41338 3.732 
2.11906 1.58204 4.139 
1.23179 1.49183 3.903 
1.17677 1.50903 3.948 
1.09492 1.49183 3.903 
1.02649 1.49183 3.903 
0.969102 1.50903 3.948 
0.889624 1.49183 3.903 
0.802886 1.45858 3.816 
0.744273 1.47501 3.859 
0.692216 1.50903 3.948 
0.60895 1.47501 3.859 
0.547461 1.49183 3.903 
0.479028 1.49183 3.903 
0.405967 1.47501 3.859 
0.338306 1.47501 3.859 
0.270645 1.47501 3.859 
0.198512 1.44252 3.774 
0.133814 1.45858 3.816 
0.0669072 1.45858 3.816 
-0 1.47501 3.859 
-0.0676611 1.47501 3.859 
-0.133814 1.45858 3.816 
-0.200722 1.45858 3.816 
-0.267629 1.45858 3.816 
-0.334536 1.45858 3.816 
-0.397025 1.44252 3.774 
-0.46835 1.45858 3.816 
-0.529366 1.44252 3.774 
-0.602165 1.45858 3.816 
-0.669072 1.45858 3.816 
-0.712064 1.41118 3.692 
-0.776797 1.41118 3.692 
-0.84153 1.41118 3.692 
-0.906263 1.41118 3.692 
-0.970996 1.41118 3.692 
-1.03573 1.41118 3.692 
-1.08884 1.39627 3.653 
-1.15289 1.39627 3.653 
-1.21694 1.39627 3.653 
-1.26731 1.38137 3.614 
-1.33067 1.38137 3.614 
-1.39404 1.38137 3.614 
-1.44208 1.36684 3.576 
-1.52077 1.38137 3.614 
-1.56748 1.36684 3.576 
-1.6475 1.38137 3.614 
-1.71087 1.38137 3.614 
-1.79338 1.39627 3.653 
2.07665 1.52288 3.948 
1.24447 1.47196 3.816 
1.19084 1.48854 3.859 
1.13598 1.50552 3.903 
1.04375 1.47196 3.816 
0.987853 1.48854 3.859 
0.920191 1.48854 3.859 
0.833752 1.45576 3.774 
0.776124 1.47196 3.816 
0.717208 1.48854 3.859 
0.649547 1.48854 3.859 
0.575402 1.47196 3.816 
0.508495 1.47196 3.816 
0.441588 1.47196 3.816 
0.378902 1.48854 3.859 
0.307773 1.47196 3.816 
0.238215 1.45576 3.774 
0.172044 1.45576 3.774 
0.105873 1.45576 3.774 
0.0397025 1.45576 3.774 
-0.0264684 1.45576 3.774 
-0.0936702 1.47196 3.816 
-0.157043 1.43956 3.732 
-0.224981 1.45576 3.774 
-0.291152 1.45576 3.774 
-0.353346 1.43956 3.732 
-0.41878 1.43956 3.732 
-0.484215 1.43956 3.732 
-0.549649 1.43956 3.732 
-0.608491 1.42413 3.692 
-0.673224 1.42413 3.692 
-0.730162 1.40908 3.653 
-0.80269 1.42413 3.692 
-0.85826 1.40908 3.653 
-0.92231 1.40908 3.653 
-0.986359 1.40908 3.653 
-1.05041 1.40908 3.653 
-1.11446 1.40908 3.653 
-1.16592 1.39404 3.614 
-1.22929 1.39404 3.614 
-1.26583 1.36511 3.539 
-1.32788 1.36511 3.539 
-1.40446 1.37938 3.576 
-1.45198 1.36511 3.539 
-1.52986 1.37938 3.576 
-1.57608 1.36511 3.539 
-1.65526 1.37938 3.576 
-1.71796 1.37938 3.576 
-1.83181 1.40908 3.653 
2.05883 1.55462 3.994 
1.17757 1.48534 3.816 
1.11066 1.48534 3.816 
1.03226 1.46899 3.774 
0.976845 1.48534 3.816 
0.909938 1.48534 3.816 
0.824474 1.45264 3.732 
0.767581 1.46899 3.774 
0.709216 1.48534 3.816 
0.642309 1.48534 3.816 
0.569069 1.46899 3.774 
0.502898 1.46899 3.774 
0.436727 1.46899 3.774 
0.37468 1.48534 3.816 
0.304386 1.46899 3.774 
0.235564 1.45264 3.732 
0.170129 1.45264 3.732 
0.103573 1.43707 3.692 
0.0392607 1.45264 3.732 
-0.0261739 1.45264 3.732 
-0.104695 1.45264 3.732 
-0.168306 1.43707 3.692 
-0.233039 1.43707 3.692 
-0.297772 1.43707 3.692 
-0.362505 1.43707 3.692 
-0.427238 1.43707 3.692 
-0.486774 1.42189 3.653 
-0.556704 1.43707 3.692 
-0.608308 1.40671 3.614 
-0.678922 1.42189 3.653 
-0.742971 1.42189 3.653 
-0.807021 1.42189 3.653 
-0.86177 1.40671 3.614 
-0.925136 1.40671 3.614 
-0.988501 1.40671 3.614 
-1.04081 1.39192 3.576 
-1.10351 1.39192 3.576 
-1.16621 1.39192 3.576 
-1.2289 1.39192 3.576 
-1.26524 1.36351 3.503 
-1.32666 1.36351 3.503 
-1.40234 1.37752 3.539 
-1.44949 1.36351 3.503 
-1.52644 1.37752 3.539 
-1.57233 1.36351 3.503 
-1.65054 1.37752 3.539 
-1.71259 1.37752 3.539 
-1.7932 1.39192 3.576 
2.01192 1.53289 3.903 
1.17757 1.49872 3.816 
1.09844 1.48223 3.774 
1.02078 1.46573 3.732 
0.955342 1.46573 3.732 
0.889908 1.46573 3.732 
0.815637 1.45002 3.692 
0.767581 1.48223 3.774 
0.693605 1.46573 3.732 
0.62817 1.46573 3.732 
0.562736 1.46573 3.732 
0.497301 1.46573 3.732 
0.431867 1.46573 3.732 
0.370557 1.48223 3.774 
0.300998 1.46573 3.732 
0.233039 1.45002 3.692 
0.166528 1.4347 3.653 
0.103573 1.45002 3.692 
0.0384296 1.4347 3.653 
-0.0258933 1.45002 3.692 
-0.0916083 1.46573 3.732 
-0.155359 1.45002 3.692 
-0.217768 1.4347 3.653 
-0.281817 1.4347 3.653 
-0.345866 1.4347 3.653 
-0.409915 1.4347 3.653 
-0.473965 1.4347 3.653 
-0.53227 1.41939 3.614 
-0.602063 1.4347 3.653 
-0.666113 1.4347 3.653 
-0.730162 1.4347 3.653 
-0.794211 1.4347 3.653 
-0.849097 1.41939 3.614 
-0.92231 1.4347 3.653 
-0.965568 1.40446 3.576 
-1.03919 1.41939 3.614 
-1.09097 1.40446 3.576 
-1.15367 1.40446 3.576 
-1.20378 1.38993 3.539 
-1.25295 1.37579 3.503 
-1.31437 1.37579 3.503 
-1.38993 1.38993 3.539 
-1.43721 1.37579 3.503 
-1.51403 1.38993 3.539 
-1.56005 1.37579 3.503 
-1.63813 1.38993 3.539 
-1.70018 1.38993 3.539 
1.98045 1.5121 3.816 
1.20399 1.47882 3.732 
1.15137 1.49546 3.774 
1.06162 1.46297 3.692 
0.996889 1.46297 3.692 
0.932156 1.46297 3.692 
0.867423 1.46297 3.692 
0.794211 1.44751 3.653 
0.737957 1.46297 3.692 
0.680518 1.47882 3.732 
0.608491 1.46297 3.692 
0.543758 1.46297 3.692 
0.484215 1.47882 3.732 
0.414292 1.46297 3.692 
0.349559 1.46297 3.692 
0.287911 1.47882 3.732 
0.220092 1.46297 3.692 
0.153718 1.44751 3.653 
0.0906263 1.46297 3.692 
0.0256197 1.44751 3.653 
-0.0388397 1.46297 3.692 
-0.168306 1.46297 3.692 
-0.230577 1.44751 3.653 
-0.307436 1.44751 3.653 
-0.371486 1.44751 3.653 
-0.461155 1.44751 3.653 
-0.519597 1.43206 3.614 
1.97189 1.50869 3.774 
1.20413 1.46032 3.653 
1.15225 1.47591 3.692 
1.0993 1.4919 3.732 
1.02278 1.47591 3.692 
0.958049 1.47591 3.692 
0.902995 1.4919 3.732 
0.828583 1.47591 3.692 
0.772126 1.4919 3.732 
0.706692 1.4919 3.732 
0.634384 1.47591 3.692 
0.569651 1.47591 3.692 
0.504918 1.47591 3.692 
0.401345 1.47591 3.692 
1.21694 1.47313 3.653 
1.1652 1.48886 3.692 
1.10046 1.48886 3.692 
1.02479 1.47313 3.653 
-3.36395 1.95109 9.593 
-3.53384 1.8978 9.331 
-2.32112 1.98473 9.593 
-2.65752 1.98473 9.593 
-3.40295 1.93052 9.331 
-3.56656 1.93052 9.331 
-2.25384 2.01837 9.593 
-2.35589 1.96324 9.331 
-2.51949 1.96324 9.331 
-3.1536 1.91127 9.084 
-3.31287 1.91127 9.084 
-3.47215 1.91127 9.084 
-3.59954 1.86183 8.849 
-3.81131 1.81491 8.626 
-2.12685 1.99596 9.331 
-2.32317 1.99596 9.331 
-2.48677 1.99596 9.331 
-3.38232 1.89286 8.849 
-3.44833 1.84516 8.626 
-3.51069 1.7996 8.413 
-0.327207 2.02868 9.331 
-0.654414 2.02868 9.331 
-2.22982 1.97498 9.084 
-3.33368 1.8291 8.413 
-3.48119 1.8291 8.413 
-3.542 1.7854 8.212 
-3.74358 1.7854 8.212 
0.392648 2.0614 9.331 
-0.159273 2.00684 9.084 
-0.392649 2.0614 9.331 
-0.621693 2.0614 9.331 
-0.764509 2.00684 9.084 
-3.36318 1.8586 8.413 
-3.34628 1.77156 8.019 
-3.48688 1.77156 8.019 
-3.71478 1.81419 8.212 
-3.68161 1.73091 7.835 
-3.81899 1.73091 7.835 
0.523531 2.09413 9.331 
0.318546 2.03869 9.084 
-0.159273 2.03869 9.084 
-0.318546 2.03869 9.084 
-3.26192 1.79968 8.019 
-3.32444 1.75838 7.835 
-3.46182 1.75838 7.835 
-3.59919 1.75838 7.835 
0.775762 2.01698 8.849 
0.62061 2.01698 8.849 
0.445964 2.07055 9.084 
0.241988 1.96615 8.626 
-0.186183 2.01698 8.849 
-2.63757 1.78586 7.835 
-2.77495 1.78586 7.835 
-2.84727 1.74597 7.66 
-3.0497 1.78586 7.835 
-3.11588 1.74597 7.66 
-3.27705 1.74597 7.66 
-3.41136 1.74597 7.66 
-3.4679 1.70768 7.492 
1.0587 1.9964 8.626 
0.786461 1.9964 8.626 
0.558549 2.04801 8.849 
0.211739 1.9964 8.626 
-0.241988 1.9964 8.626 
-0.39323 1.9964 8.626 
-2.3903 1.81333 7.835 
-2.6101 1.81333 7.835 
-2.68611 1.77283 7.66 
-2.82041 1.77283 7.66 
-2.95472 1.77283 7.66 
-3.02127 1.73395 7.492 
-3.22333 1.77283 7.66 
-3.28399 1.73395 7.492 
-3.41535 1.73395 7.492 
-3.67666 1.69692 7.332 
0.230374 1.92938 8.212 
-0.0590034 1.97661 8.413 
-0.354019 1.97661 8.413 
-1.97818 1.84081 7.835 
-2.11556 1.84081 7.835 
-2.33691 1.79969 7.66 
-2.47122 1.79969 7.66 
-2.62719 1.76022 7.492 
-2.75855 1.76022 7.492 
-2.88991 1.76022 7.492 
-2.95675 1.72263 7.332 
-3.15263 1.76022 7.492 
-3.21386 1.72263 7.332 
-3.27221 1.68645 7.178 
-3.42661 1.65167 7.03 
1.9176 2.00611 8.413 
1.78466 2.0569 8.626 
0.914549 2.00611 8.413 
0.767041 2.00611 8.413 
0.230374 1.95818 8.212 
0.0863903 1.95818 8.212 
-0.966998 1.82655 7.66 
-1.74597 1.82655 7.66 
-1.98772 1.82655 7.66 
-2.12202 1.82655 7.66 
-2.31398 1.74834 7.332 
-2.57465 1.78649 7.492 
-2.64822 1.74834 7.332 
-2.71845 1.71162 7.178 
-2.90533 1.74834 7.332 
-2.97016 1.71162 7.178 
-3.09601 1.71162 7.178 
-3.15544 1.67633 7.03 
-3.33372 1.64271 6.889 
1.9176 2.03561 8.413 
1.7701 2.03561 8.413 
1.09668 1.94028 8.019 
0.835106 1.98698 8.212 
0.2812 1.94028 8.019 
0.137374 1.89576 7.835 
-0.107444 1.85341 7.66 
-0.769292 1.89576 7.835 
-0.966998 1.85341 7.66 
-1.20851 1.81276 7.492 
-1.4505 1.85341 7.66 
-1.73395 1.81276 7.492 
-1.86531 1.81276 7.492 
-1.99667 1.81276 7.492 
-2.08258 1.77405 7.332 
-2.26538 1.73679 7.178 
-2.49191 1.73679 7.178 
-2.61777 1.73679 7.178 
-2.68705 1.70098 7.03 
-2.86948 1.73679 7.178 
-2.93357 1.70098 7.03 
-3.05683 1.70098 7.03 
-3.11631 1.66686 6.889 
-3.17319 1.63396 6.753 
2.30374 2.01577 8.212 
2.04457 2.01577 8.212 
1.85592 1.9684 8.019 
1.7566 2.01577 8.212 
0.871719 1.9684 8.019 
0.731119 1.9684 8.019 
0.302222 1.92323 7.835 
0.161167 1.88027 7.66 
-0 1.92323 7.835 
-0.134305 1.88027 7.66 
-0.394079 1.83904 7.492 
-0.671527 1.88027 7.66 
-0.893246 1.83904 7.492 
-1.1827 1.79976 7.332 
-1.61979 1.79976 7.332 
-1.76196 1.76196 7.178 
