-1.45036 1.32741 2.902 
-1.31002 1.32238 2.891 
-1.17396 1.32101 2.888 
-0.883843 1.32558 2.898 
-0.3733 1.31964 2.885 
-0.278799 1.32192 2.89 
-0.167387 1.31872 2.883 
-0.127927 1.31964 2.885 
-0.0884728 1.32146 2.889 
-0.0091848 1.31781 2.881 
0.0303683 1.31918 2.884 
0.109608 1.32055 2.887 
0.283864 1.32055 2.887 
0.35429 1.31735 2.88 
0.418372 1.32009 2.886 
0.488277 1.31643 2.878 
0.568421 1.31918 2.884 
0.655004 1.31826 2.882 
0.69237 1.31415 2.873 
0.742754 1.31964 2.885 
0.825507 1.31277 2.87 
0.914983 1.31689 2.879 
0.967579 1.31323 2.871 
1.01082 1.31826 2.882 
-1.52469 1.32387 2.877 
-1.41566 1.32525 2.88 
-1.36682 1.32387 2.877 
-1.26989 1.32157 2.872 
-1.16362 1.32617 2.882 
-0.434352 1.32065 2.87 
-0.362852 1.31835 2.865 
-0.276484 1.31881 2.866 
-0.182635 1.32249 2.874 
-0.127395 1.32203 2.873 
-0.0563355 1.31927 2.867 
-0.00127383 1.31881 2.866 
0.0932788 1.32157 2.872 
0.266445 1.32065 2.87 
0.353183 1.32111 2.871 
0.463136 1.32019 2.869 
0.508586 1.31559 2.859 
0.580599 1.31881 2.866 
0.666861 1.31835 2.865 
0.703452 1.31329 2.854 
0.950167 1.31881 2.866 
0.987411 1.31605 2.86 
1.05018 1.31605 2.86 
-1.43849 1.31788 2.847 
-1.20265 1.32482 2.862 
-0.581316 1.3225 2.857 
-0.447435 1.32065 2.853 
-0.408011 1.31973 2.851 
-0.274651 1.31788 2.847 
-0.181618 1.32297 2.858 
-0.040363 1.31926 2.85 
-0.00126627 1.3188 2.849 
0.163052 1.32019 2.852 
0.225571 1.31973 2.851 
0.311831 1.32065 2.853 
0.365082 1.3151 2.841 
0.404908 1.31788 2.847 
0.512817 1.31417 2.839 
0.58374 1.31602 2.843 
0.65486 1.31788 2.847 
0.690259 1.31093 2.832 
0.811081 1.31788 2.847 
0.992232 1.30954 2.829 
-1.52174 1.32336 2.842 
-1.41605 1.32662 2.849 
-1.29698 1.32476 2.845 
-1.19951 1.32056 2.836 
-0.617467 1.32382 2.843 
-0.452549 1.32056 2.836 
-0.398083 1.32056 2.836 
-0.27359 1.32056 2.836 
-0.0791526 1.32196 2.839 
0.0997848 1.31917 2.833 
0.177448 1.3187 2.832 
0.263381 1.32103 2.837 
0.32565 1.32103 2.837 
0.362126 1.31218 2.818 
0.410834 1.31963 2.834 
0.582097 1.3201 2.835 
0.61814 1.31405 2.822 
0.68249 1.3187 2.832 
0.780178 1.31311 2.82 
0.877046 1.31917 2.833 
0.945662 1.3173 2.829 
1.02002 1.31311 2.82 
-1.36682 1.3246 2.828 
-1.29106 1.32647 2.832 
-1.1561 1.32319 2.825 
-0.761898 1.32507 2.829 
-0.620429 1.32132 2.821 
-0.481626 1.32272 2.824 
-0.412041 1.32319 2.825 
-0.357659 1.32272 2.824 
-0.218274 1.32319 2.825 
-0.179457 1.32272 2.824 
-0.0709613 1.32226 2.823 
0.0839125 1.32179 2.822 
0.176383 1.31851 2.815 
0.21477 1.3171 2.812 
0.276195 1.3157 2.809 
0.315961 1.32085 2.82 
0.353263 1.3157 2.809 
0.393052 1.31991 2.818 
0.49321 1.31898 2.816 
0.531463 1.31804 2.814 
0.578401 1.31945 2.817 
0.614416 1.31383 2.805 
0.701562 1.31851 2.815 
0.782047 1.31101 2.799 
0.854811 1.31664 2.811 
0.915204 1.31476 2.807 
1.04203 1.30961 2.796 
-1.7002 1.32011 2.802 
-1.3842 1.3267 2.816 
-1.17996 1.32293 2.808 
-0.819331 1.32529 2.813 
-0.639997 1.32152 2.805 
-0.548038 1.32246 2.807 
-0.455136 1.32105 2.804 
-0.371173 1.32341 2.809 
-0.286195 1.32246 2.807 
-0.185747 1.32011 2.802 
-0.131981 1.32058 2.803 
-0.0779816 1.31775 2.797 
0.0756572 1.32058 2.803 
0.114109 1.32058 2.803 
0.213624 1.31775 2.797 
0.274425 1.31493 2.791 
0.336767 1.31917 2.8 
0.389425 1.3154 2.792 
0.436166 1.31775 2.797 
0.521136 1.31917 2.8 
0.557948 1.3154 2.792 
0.598171 1.31964 2.801 
0.686938 1.31304 2.787 
0.764497 1.31493 2.791 
0.827236 1.31728 2.796 
0.873887 1.31822 2.798 
0.908357 1.31257 2.786 
1.00664 1.31116 2.783 
-1.58575 1.32211 2.79 
-1.39588 1.32353 2.793 
-1.2485 1.32163 2.789 
-1.13372 1.32163 2.789 
-0.760681 1.32495 2.796 
-0.644229 1.32211 2.79 
-0.522503 1.324 2.794 
-0.399138 1.32163 2.789 
-0.344707 1.31832 2.782 
-0.253206 1.31879 2.783 
-0.169338 1.31974 2.785 
-0.122916 1.31358 2.772 
-0.0852879 1.31974 2.785 
-0.0469988 1.31737 2.78 
0.0828123 1.31974 2.785 
0.151744 1.32116 2.788 
0.22668 1.31216 2.769 
0.27354 1.31832 2.782 
0.312264 1.32069 2.787 
0.394952 1.31595 2.777 
0.433983 1.31879 2.783 
0.492042 1.31074 2.766 
0.554551 1.315 2.775 
0.59454 1.31927 2.784 
0.674904 1.31216 2.769 
0.768558 1.31642 2.778 
0.837154 1.31642 2.778 
0.880341 1.31263 2.77 
0.918009 1.31216 2.769 
0.985669 1.31121 2.767 
-1.52503 1.32357 2.777 
-1.39752 1.32547 2.781 
-1.253 1.32595 2.782 
-0.947349 1.32547 2.781 
-0.786554 1.32452 2.779 
-0.626215 1.32404 2.778 
-0.510047 1.31928 2.768 
-0.449455 1.31975 2.769 
-0.350314 1.31832 2.766 
-0.297622 1.32023 2.77 
-0.19904 1.32166 2.773 
-0.137429 1.31451 2.758 
-0.0848286 1.32023 2.77 
-0.0468636 1.32118 2.772 
0.0672395 1.32166 2.773 
0.105014 1.31832 2.766 
0.196504 1.32118 2.772 
0.233008 1.31261 2.754 
0.271869 1.31785 2.765 
0.317844 1.31975 2.769 
0.371157 1.32023 2.77 
0.407384 1.31451 2.758 
0.446025 1.31689 2.763 
0.492398 1.31928 2.768 
0.568751 1.32023 2.77 
0.620827 1.31785 2.765 
0.656851 1.31403 2.757 
0.733023 1.31499 2.759 
0.814218 1.31165 2.752 
0.87621 1.31403 2.757 
0.914693 1.31499 2.759 
0.979614 1.3107 2.75 
-1.44387 1.31968 2.753 
-1.34763 1.3216 2.757 
-1.13625 1.32208 2.758 
-0.852243 1.31585 2.745 
-0.591225 1.3216 2.757 
-0.493607 1.32352 2.761 
-0.363773 1.31968 2.753 
-0.324705 1.31441 2.742 
-0.287823 1.31776 2.749 
-0.235541 1.32064 2.755 
-0.13723 1.32016 2.754 
-0.0995587 1.3216 2.757 
-0.0540169 1.31776 2.749 
-0.00877035 1.31872 2.751 
0.066512 1.31489 2.743 
0.104216 1.31585 2.745 
0.142389 1.32064 2.755 
0.233092 1.32064 2.755 
0.270689 1.31968 2.753 
0.331114 1.31968 2.753 
0.368075 1.31681 2.747 
0.405316 1.31537 2.744 
0.451635 1.31872 2.751 
0.489374 1.31872 2.751 
0.556695 1.31728 2.748 
0.625004 1.31824 2.75 
0.670273 1.31824 2.75 
0.734956 1.31249 2.738 
0.786965 1.31153 2.736 
0.828113 1.31728 2.748 
0.866125 1.31776 2.749 
0.915912 1.31345 2.74 
1.00152 1.31728 2.748 
-1.43443 1.31856 2.735 
-1.31293 1.31711 2.732 
-0.858834 1.32193 2.742 
-0.694341 1.32386 2.746 
-0.565852 1.3229 2.744 
-0.445397 1.3229 2.744 
-0.33876 1.31807 2.734 
-0.301035 1.31711 2.732 
-0.241688 1.32049 2.739 
-0.151401 1.31952 2.737 
-0.0989809 1.32145 2.741 
-0.0237095 1.31759 2.733 
0.0438389 1.31952 2.737 
0.0810579 1.31422 2.726 
0.118888 1.31904 2.736 
0.156649 1.32097 2.74 
0.253354 1.31566 2.729 
0.291856 1.32049 2.739 
0.329069 1.31904 2.736 
0.364994 1.31325 2.724 
0.4031 1.31566 2.729 
0.463507 1.31711 2.732 
0.500618 1.31615 2.73 
0.567404 1.3147 2.727 
0.626108 1.31229 2.722 
0.692811 1.31133 2.72 
0.730661 1.31229 2.722 
0.776894 1.3147 2.727 
0.837669 1.31615 2.73 
0.883256 1.31711 2.732 
0.984937 1.31277 2.723 
-1.38382 1.32073 2.724 
-0.818524 1.32509 2.733 
-0.674573 1.32218 2.727 
-0.629451 1.3217 2.726 
-0.562552 1.32267 2.728 
-0.448469 1.31733 2.717 
-0.374889 1.32073 2.724 
-0.322455 1.32024 2.723 
-0.277325 1.31879 2.72 
-0.173357 1.32267 2.728 
-0.135486 1.3183 2.719 
-0.0981864 1.3183 2.719 
-0.023588 1.3183 2.719 
0.0137061 1.31782 2.718 
0.0585132 1.31927 2.721 
0.0958751 1.31976 2.722 
0.132971 1.31733 2.717 
0.170618 1.32024 2.723 
0.245146 1.31927 2.721 
0.289192 1.31588 2.714 
0.333377 1.31394 2.71 
0.3711 1.31588 2.714 
0.409685 1.32024 2.723 
0.451338 1.31103 2.704 
0.506619 1.31976 2.722 
0.548186 1.312 2.706 
0.588335 1.31879 2.72 
0.624038 1.31539 2.713 
0.727172 1.31345 2.709 
0.771196 1.31248 2.707 
0.812213 1.31879 2.72 
0.862226 1.31539 2.713 
0.899112 1.31491 2.712 
0.951196 1.31491 2.712 
-1.20955 1.31747 2.702 
-0.690628 1.31747 2.702 
-0.632725 1.3204 2.708 
-0.558634 1.32089 2.709 
-0.463036 1.32381 2.715 
-0.416648 1.31845 2.704 
-0.372549 1.31991 2.707 
-0.321034 1.32186 2.711 
-0.253812 1.3204 2.708 
-0.164413 1.31845 2.704 
-0.127084 1.31601 2.699 
-0.0902928 1.31942 2.706 
-0.0160511 1.31942 2.706 
0.021062 1.31894 2.705 
0.087725 1.31699 2.701 
0.132286 1.31796 2.703 
0.1914 1.3165 2.7 
0.250198 1.31406 2.695 
0.287488 1.31552 2.698 
0.339806 1.31747 2.702 
0.384712 1.31894 2.705 
0.42026 1.31406 2.695 
0.457569 1.31504 2.697 
0.51031 1.31747 2.702 
0.546768 1.31601 2.699 
0.612504 1.31406 2.695 
0.67041 1.31162 2.69 
0.72395 1.31504 2.697 
0.773446 1.31114 2.689 
0.831537 1.30967 2.686 
0.893807 1.31455 2.696 
-1.42137 1.32194 2.696 
-0.86726 1.32293 2.698 
-0.718149 1.32096 2.694 
-0.666163 1.32047 2.693 
-0.599666 1.32047 2.693 
-0.549371 1.32391 2.7 
-0.487386 1.31655 2.685 
-0.443187 1.31655 2.685 
-0.37076 1.32096 2.694 
-0.332812 1.31704 2.686 
-0.259023 1.31655 2.685 
-0.170497 1.31557 2.683 
-0.133891 1.31753 2.687 
-0.0971031 1.31851 2.689 
-0.0307053 1.31851 2.689 
0.00615938 1.31361 2.679 
0.043054 1.31802 2.688 
0.109712 1.32145 2.695 
0.15339 1.31557 2.683 
0.212832 1.319 2.69 
0.249455 1.31753 2.687 
0.285783 1.31508 2.682 
0.322214 1.31361 2.679 
0.3595 1.31557 2.683 
0.41948 1.319 2.69 
0.454855 1.31459 2.681 
0.491266 1.31361 2.679 
0.545147 1.31949 2.691 
0.633273 1.31851 2.689 
0.691263 1.31655 2.685 
0.749916 1.31606 2.684 
0.8211 1.31214 2.676 
0.866121 1.31361 2.679 
0.91226 1.31655 2.685 
-1.56523 1.32589 2.689 
-1.25994 1.32293 2.683 
-1.15731 1.32342 2.684 
-0.876506 1.32195 2.681 
-0.758251 1.32096 2.679 
-0.676641 1.31948 2.676 
-0.604124 1.32145 2.68 
-0.544894 1.32047 2.678 
-0.507019 1.31751 2.672 
-0.447533 1.31504 2.667 
-0.411563 1.31701 2.671 
-0.360941 1.31948 2.676 
-0.323868 1.318 2.673 
-0.257962 1.31849 2.674 
-0.169862 1.318 2.673 
-0.133393 1.31997 2.677 
-0.0815824 1.31356 2.664 
-0.0232584 1.32195 2.681 
0.0354801 1.318 2.673 
0.108979 1.31997 2.677 
0.145594 1.31899 2.675 
0.196599 1.31652 2.67 
0.23375 1.31948 2.676 
0.270763 1.32096 2.679 
0.305792 1.31356 2.664 
0.342465 1.31406 2.665 
0.387205 1.31701 2.671 
0.47532 1.31751 2.672 
0.534167 1.318 2.673 
0.585065 1.31701 2.671 
0.642967 1.31554 2.668 
0.680076 1.31652 2.67 
0.797581 1.31701 2.671 
0.845382 1.31159 2.66 
0.899501 1.31603 2.669 
-1.27533 1.32335 2.669 
-1.14696 1.31889 2.66 
-0.833464 1.31938 2.661 
-0.770354 1.32385 2.67 
-0.734002 1.32434 2.671 
-0.680405 1.31988 2.662 
-0.615366 1.32137 2.665 
-0.570424 1.31889 2.66 
-0.50664 1.32385 2.67 
-0.44703 1.32087 2.664 
-0.410331 1.32038 2.663 
-0.365393 1.31641 2.655 
-0.322656 1.32038 2.663 
-0.270901 1.3174 2.657 
-0.20568 1.31988 2.662 
-0.132695 1.32038 2.663 
-0.0813987 1.3179 2.658 
-0.0448855 1.31641 2.655 
0.101179 1.32137 2.665 
0.137376 1.3179 2.658 
0.173904 1.31839 2.659 
0.21038 1.31839 2.659 
0.283545 1.31938 2.661 
0.320049 1.31938 2.661 
0.362075 1.31294 2.648 
0.429882 1.32038 2.663 
0.472296 1.31641 2.655 
0.517168 1.31938 2.661 
0.565924 1.31393 2.65 
0.604776 1.31938 2.661 
0.660191 1.31343 2.649 
0.733146 1.31393 2.65 
0.80798 1.3174 2.657 
0.855128 1.31145 2.645 
-1.27833 1.32619 2.66 
-1.09258 1.3222 2.652 
-0.843603 1.31971 2.647 
-0.762853 1.31821 2.644 
-0.707486 1.3232 2.654 
-0.63491 1.32369 2.655 
-0.58831 1.31721 2.642 
-0.420794 1.31472 2.637 
-0.377242 1.31422 2.636 
-0.334736 1.31771 2.643 
-0.276935 1.31871 2.645 
-0.211943 1.3207 2.649 
-0.145759 1.31372 2.635 
-0.109986 1.31821 2.644 
-0.059051 1.31472 2.637 
0.0351881 1.3217 2.651 
0.122052 1.31721 2.642 
0.179904 1.31622 2.64 
0.238389 1.31921 2.646 
0.288988 1.31821 2.644 
0.345314 1.31173 2.631 
0.388772 1.31223 2.632 
0.427138 1.31921 2.646 
0.471051 1.3202 2.648 
0.520132 1.31572 2.639 
0.55528 1.31322 2.634 
0.591638 1.31372 2.635 
0.628023 1.31422 2.636 
0.699547 1.31273 2.633 
0.777531 1.31023 2.628 
0.923137 1.31223 2.632 
-1.17598 1.31694 2.627 
-0.90553 1.32195 2.637 
-0.798216 1.32396 2.641 
-0.739128 1.32195 2.637 
-0.688745 1.32246 2.638 
-0.599384 1.31694 2.627 
-0.562918 1.31594 2.625 
-0.426893 1.31845 2.63 
-0.375668 1.31594 2.625 
-0.33927 1.31444 2.622 
-0.304574 1.31995 2.633 
-0.239832 1.32145 2.636 
-0.181008 1.31444 2.622 
-0.14515 1.31544 2.624 
-0.109404 1.31845 2.63 
-0.0517572 1.32045 2.634 
0.034989 1.32145 2.636 
0.121728 1.32095 2.635 
0.186084 1.31594 2.625 
0.243792 1.31644 2.626 
0.287676 1.31945 2.632 
0.343608 1.31243 2.618 
0.380826 1.31694 2.627 
0.446032 1.31794 2.629 
0.511337 1.31895 2.631 
0.573893 1.31343 2.62 
0.616081 1.31143 2.616 
0.655207 1.31794 2.629 
0.724293 1.31243 2.618 
0.776347 1.31544 2.624 
0.867285 1.31143 2.616 
-1.14147 1.3176 2.614 
-1.04346 1.32062 2.62 
-0.817177 1.31508 2.609 
-0.733523 1.31911 2.617 
-0.662987 1.32163 2.622 
-0.589697 1.3186 2.616 
-0.539869 1.31961 2.618 
-0.445641 1.31709 2.613 
-0.404321 1.32264 2.624 
-0.346199 1.32062 2.62 
-0.310021 1.31961 2.618 
-0.194501 1.31558 2.61 
-0.144708 1.3186 2.616 
-0.108655 1.31659 2.612 
-0.0370915 1.32012 2.619 
0.0348032 1.32163 2.622 
0.0921063 1.3181 2.615 
0.185375 1.3181 2.615 
0.228859 1.32062 2.62 
0.278963 1.31961 2.618 
0.315117 1.32062 2.62 
0.350791 1.31961 2.618 
0.386261 1.3181 2.615 
0.441452 1.31155 2.602 
0.493879 1.3181 2.615 
0.52651 1.31004 2.599 
0.606576 1.31356 2.606 
0.670667 1.31306 2.605 
0.743277 1.31508 2.609 
0.814545 1.31457 2.608 
-1.30043 1.31869 2.602 
-0.983693 1.32477 2.614 
-0.850352 1.31818 2.601 
-0.770667 1.31615 2.597 
-0.716689 1.32173 2.608 
-0.656665 1.31615 2.597 
-0.602897 1.32325 2.611 
-0.552964 1.32375 2.612 
-0.492408 1.31514 2.595 
-0.434948 1.31362 2.592 
-0.387397 1.32122 2.607 
-0.315387 1.31919 2.603 
-0.280001 1.32071 2.606 
-0.178799 1.3126 2.59 
-0.1011 1.31869 2.602 
-0.0510301 1.31615 2.597 
0.0202289 1.31666 2.598 
0.0557822 1.31463 2.594 
0.0983317 1.3126 2.59 
0.212763 1.31717 2.599 
0.270119 1.31869 2.602 
0.304638 1.31362 2.592 
0.341508 1.31869 2.602 
0.411627 1.31463 2.594 
0.455204 1.31717 2.599 
0.503175 1.3121 2.589 
0.540979 1.31767 2.6 
0.581085 1.31159 2.588 
0.640107 1.31615 2.597 
0.673651 1.3121 2.589 
0.707797 1.30956 2.584 
0.800889 1.31108 2.587 
-1.23567 1.31767 2.586 
-1.0339 1.32277 2.596 
-0.91106 1.32022 2.591 
-0.80412 1.31971 2.59 
-0.713392 1.32277 2.596 
-0.624779 1.31614 2.583 
-0.568965 1.31818 2.587 
-0.533064 1.31716 2.585 
-0.489182 1.3136 2.578 
-0.407129 1.32277 2.596 
-0.313569 1.31869 2.588 
-0.270548 1.31665 2.584 
-0.235646 1.31971 2.59 
-0.171428 1.31767 2.586 
-0.0865223 1.32124 2.593 
-0.0508336 1.31818 2.587 
-0.0153393 1.31767 2.586 
0.0272936 1.32073 2.592 
0.0698 1.31767 2.586 
0.104827 1.31207 2.575 
0.197815 1.31971 2.59 
0.232894 1.31716 2.585 
0.281555 1.31258 2.576 
0.331413 1.31411 2.579 
0.381387 1.31563 2.582 
0.417614 1.31818 2.587 
0.452226 1.31563 2.582 
0.486513 1.31258 2.576 
0.551188 1.31512 2.581 
0.608074 1.31563 2.582 
0.656897 1.31411 2.579 
0.70588 1.31309 2.577 
0.795935 1.31003 2.571 
0.874886 1.31207 2.575 
-0.960831 1.3176 2.572 
-0.884583 1.31964 2.576 
-0.811696 1.31606 2.569 
-0.763842 1.31862 2.574 
-0.662907 1.31452 2.566 
-0.628196 1.31555 2.568 
-0.596201 1.32272 2.582 
-0.529971 1.31657 2.57 
-0.452937 1.31811 2.573 
-0.402895 1.31606 2.569 
-0.340121 1.31862 2.574 
-0.305048 1.31964 2.576 
-0.241253 1.31862 2.574 
-0.191297 1.31503 2.567 
-0.156812 1.32118 2.579 
-0.0714575 1.31299 2.563 
-0.0152206 1.31452 2.566 
0.0199408 1.31196 2.561 
0.0623656 1.3176 2.572 
0.0971927 1.31145 2.56 
0.1544 1.32016 2.577 
0.202547 1.31145 2.56 
0.245549 1.31606 2.569 
0.301465 1.31401 2.565 
0.351957 1.31862 2.574 
0.393869 1.31708 2.571 
0.429472 1.31811 2.573 
0.463324 1.31401 2.565 
0.541156 1.31503 2.567 
0.582049 1.31196 2.561 
0.627376 1.31862 2.574 
0.666886 1.31299 2.563 
0.722576 1.31196 2.561 
0.780915 1.31555 2.568 
-1.13941 1.31899 2.561 
-1.02315 1.32311 2.569 
-0.872406 1.31899 2.561 
-0.819063 1.32362 2.57 
-0.73804 1.31744 2.558 
-0.661357 1.31847 2.56 
-0.607059 1.32259 2.568 
-0.533051 1.31384 2.551 
-0.43092 1.32259 2.568 
-0.337742 1.31641 2.556 
-0.3041 1.32259 2.568 
-0.267826 1.31744 2.558 
-0.23319 1.32002 2.563 
-0.169439 1.31641 2.556 
-0.106118 1.31384 2.551 
-0.0712066 1.31538 2.554 
-0.015185 1.31847 2.56 
0.0618807 1.31435 2.552 
0.0969269 1.31487 2.553 
0.146129 1.31641 2.556 
0.223792 1.3195 2.562 
0.299937 1.31435 2.552 
0.348675 1.31332 2.55 
0.404803 1.31384 2.551 
0.482169 1.31487 2.553 
0.559656 1.3159 2.555 
0.601951 1.31641 2.556 
0.650275 1.31487 2.553 
0.707417 1.31693 2.557 
0.801536 1.31023 2.544 
-0.99225 1.31721 2.544 
-0.861663 1.32032 2.55 
-0.786859 1.32394 2.557 
-0.679762 1.32032 2.55 
-0.644023 1.31876 2.547 
-0.554265 1.32135 2.552 
-0.499033 1.32342 2.556 
-0.426725 1.31669 2.543 
-0.358219 1.32135 2.552 
-0.316457 1.32239 2.554 
-0.238722 1.31876 2.547 
-0.190105 1.32084 2.551 
-0.148227 1.32187 2.553 
-0.106034 1.3198 2.549 
-0.0711787 1.32187 2.553 
-0.0220351 1.31514 2.54 
0.0478023 1.31928 2.548 
0.103443 1.31566 2.541 
0.145386 1.31669 2.543 
0.194148 1.31618 2.542 
0.249942 1.31618 2.542 
0.299585 1.3198 2.549 
0.347445 1.31566 2.541 
0.387742 1.31048 2.531 
0.453262 1.31928 2.548 
0.499635 1.31255 2.535 
0.543927 1.31876 2.547 
0.591446 1.31566 2.541 
0.637727 1.31048 2.531 
0.681002 1.31359 2.537 
0.744233 1.31462 2.539 
-1.08611 1.31951 2.535 
-0.902422 1.31534 2.527 
-0.819874 1.31638 2.529 
-0.752269 1.31951 2.535 
-0.674164 1.31638 2.529 
-0.643011 1.32367 2.543 
-0.557968 1.32055 2.537 
-0.430291 1.31326 2.523 
-0.362358 1.31794 2.532 
-0.286057 1.31847 2.533 
-0.237972 1.32159 2.539 
-0.189285 1.32211 2.54 
-0.140338 1.32055 2.537 
-0.0776625 1.32003 2.536 
-0.0358168 1.31638 2.529 
0.00580991 1.31534 2.527 
0.0406515 1.32107 2.538 
0.130605 1.31534 2.527 
0.17857 1.31118 2.519 
0.242299 1.31951 2.535 
0.276965 1.31899 2.534 
0.346624 1.31951 2.535 
0.429745 1.31847 2.533 
0.497861 1.31482 2.526 
0.565143 1.31014 2.517 
0.637727 1.31742 2.531 
0.700777 1.31847 2.533 
0.793029 1.31014 2.517 
-0.9752 1.31757 2.518 
-0.822562 1.31652 2.516 
-0.750785 1.32384 2.53 
-0.642576 1.31547 2.514 
-0.607847 1.31495 2.513 
-0.56986 1.3228 2.528 
-0.470328 1.316 2.515 
-0.421188 1.31338 2.51 
-0.374617 1.31914 2.521 
-0.312244 1.31861 2.52 
-0.236848 1.32228 2.527 
-0.201382 1.31704 2.517 
-0.166522 1.31443 2.512 
-0.12552 1.31809 2.519 
-0.0906392 1.31338 2.51 
-0.0562518 1.31443 2.512 
-0.0218096 1.31547 2.514 
0.0126825 1.316 2.515 
0.0471082 1.3139 2.511 
0.130398 1.32018 2.523 
0.20515 1.31129 2.506 
0.239718 1.31233 2.508 
0.309635 1.31704 2.517 
0.349674 1.31181 2.507 
0.417955 1.31024 2.504 
0.510709 1.31914 2.521 
0.571594 1.316 2.515 
0.6342 1.31704 2.517 
0.685336 1.30919 2.502 
0.757296 1.31495 2.513 
0.837023 1.31024 2.504 
-0.832711 1.31764 2.505 
-0.744553 1.31974 2.509 
-0.709003 1.31764 2.505 
-0.639253 1.31553 2.501 
-0.600235 1.32027 2.51 
-0.546012 1.32237 2.514 
-0.50949 1.31711 2.504 
-0.467336 1.31448 2.499 
-0.400848 1.32132 2.512 
-0.36595 1.31974 2.509 
-0.302422 1.3129 2.496 
-0.234879 1.31816 2.506 
-0.193163 1.31501 2.5 
-0.159313 1.31869 2.507 
-0.125071 1.32027 2.51 
-0.0695617 1.31238 2.495 
-0.0285814 1.31658 2.503 
0.0195593 1.32132 2.512 
0.0884432 1.32079 2.511 
0.150266 1.31921 2.508 
0.225866 1.31869 2.507 
0.286393 1.31238 2.495 
0.362995 1.31711 2.504 
0.429799 1.31132 2.493 
0.472726 1.31658 2.503 
0.569776 1.31869 2.507 
0.683692 1.3129 2.496 
-1.28477 1.32292 2.502 
-0.746046 1.31711 2.491 
-0.638742 1.32134 2.499 
-0.587675 1.31446 2.486 
-0.521141 1.31869 2.494 
-0.453079 1.31975 2.496 
-0.391917 1.32134 2.499 
-0.355918 1.31499 2.487 
-0.321543 1.31393 2.485 
-0.261229 1.31922 2.495 
-0.219187 1.31341 2.484 
-0.178584 1.31552 2.488 
-0.131274 1.32028 2.497 
-0.0693386 1.31499 2.487 
-0.0147283 1.31288 2.483 
0.026209 1.31605 2.489 
0.0878444 1.31869 2.494 
0.155455 1.31182 2.481 
0.189795 1.31393 2.485 
0.224064 1.31499 2.487 
0.264152 1.31076 2.479 
0.367207 1.31446 2.486 
0.429626 1.31764 2.492 
0.484906 1.31922 2.495 
0.584052 1.31129 2.48 
0.645289 1.31129 2.48 
0.696271 1.31764 2.492 
-0.990886 1.32235 2.488 
-0.812754 1.32128 2.486 
-0.632352 1.31491 2.474 
-0.587202 1.32022 2.484 
-0.546971 1.32181 2.487 
-0.497 1.31597 2.476 
-0.39606 1.31916 2.482 
-0.362888 1.32235 2.488 
-0.313332 1.31491 2.474 
-0.279281 1.31437 2.473 
-0.23263 1.31916 2.482 
-0.171689 1.32181 2.487 
-0.0964765 1.31969 2.483 
-0.0283644 1.32022 2.484 
0.0192478 1.31384 2.472 
0.0533522 1.31863 2.481 
0.0871752 1.31544 2.475 
0.121421 1.31863 2.481 
0.182462 1.31703 2.478 
0.215931 1.31384 2.472 
0.26997 1.31278 2.47 
0.31063 1.31278 2.47 
0.385953 1.31544 2.475 
0.473462 1.31331 2.471 
0.54981 1.31756 2.479 
0.614584 1.31065 2.466 
0.672235 1.31756 2.479 
0.766525 1.31597 2.476 
-0.801719 1.32116 2.473 
-0.628774 1.31421 2.46 
-0.556335 1.31849 2.468 
-0.454767 1.31849 2.468 
-0.393667 1.31795 2.467 
-0.345024 1.31315 2.458 
-0.278377 1.31688 2.465 
-0.210919 1.31795 2.467 
-0.142711 1.31315 2.458 
-0.055065 1.31368 2.459 
-0.0214452 1.32062 2.472 
0.0326794 1.31528 2.462 
0.0797677 1.31208 2.456 
0.113967 1.31795 2.467 
0.147929 1.31902 2.469 
0.195189 1.31795 2.467 
0.229309 1.31956 2.47 
0.303238 1.31688 2.465 
0.3644 1.31795 2.467 
0.403205 1.31208 2.456 
0.539066 1.31475 2.461 
0.612839 1.31368 2.459 
0.739817 1.31154 2.455 
0.792408 1.30941 2.451 
-0.780819 1.31559 2.45 
-0.59285 1.31613 2.451 
-0.498096 1.31452 2.448 
-0.453293 1.32096 2.46 
-0.365107 1.31935 2.457 
-0.250408 1.31882 2.456 
-0.169272 1.31667 2.452 
-0.135912 1.31935 2.457 
-0.0482202 1.31774 2.454 
-0.0145859 1.32043 2.459 
0.0257667 1.31398 2.447 
0.0729402 1.3172 2.453 
0.140183 1.31667 2.452 
0.18674 1.31291 2.445 
0.228288 1.32043 2.459 
0.273721 1.31183 2.443 
0.328146 1.31506 2.449 
0.380495 1.31022 2.44 
0.455808 1.31506 2.449 
0.542269 1.31291 2.445 
0.622766 1.31291 2.445 
0.690411 1.31398 2.447 
0.758476 1.31559 2.45 
-0.873139 1.31962 2.445 
-0.797388 1.31638 2.439 
-0.657672 1.318 2.442 
-0.62494 1.31962 2.445 
-0.563412 1.31692 2.44 
-0.462237 1.31476 2.436 
-0.357345 1.32232 2.45 
-0.308139 1.31314 2.433 
-0.249796 1.32232 2.45 
-0.181236 1.3126 2.432 
-0.141376 1.31422 2.435 
-0.0144732 1.31692 2.44 
0.0190376 1.31962 2.445 
0.0724942 1.31584 2.438 
0.119463 1.31746 2.441 
0.152573 1.31422 2.435 
0.212349 1.31206 2.431 
0.253509 1.318 2.442 
0.327342 1.31854 2.443 
0.419454 1.31314 2.433 
0.46045 1.31584 2.438 
0.592278 1.31152 2.43 
0.631759 1.31044 2.428 
0.779914 1.31314 2.433 
-0.69387 1.3171 2.428 
-0.639523 1.31493 2.424 
-0.513164 1.31493 2.424 
-0.480902 1.31765 2.429 
-0.414942 1.31981 2.433 
-0.361392 1.31927 2.432 
-0.273973 1.31602 2.426 
-0.21504 1.32198 2.437 
-0.167823 1.31873 2.431 
-0.100959 1.31656 2.427 
-0.014408 1.31765 2.429 
0.0255667 1.3171 2.428 
0.125075 1.31276 2.42 
0.17797 1.31114 2.417 
0.257652 1.31168 2.418 
0.332404 1.31873 2.431 
0.371809 1.31656 2.427 
0.417213 1.31276 2.42 
0.654608 1.30951 2.414 
0.709938 1.31385 2.422 
-0.851284 1.31995 2.421 
-0.758292 1.31995 2.421 
-0.559487 1.32104 2.423 
-0.491992 1.31831 2.418 
-0.365038 1.31504 2.412 
-0.30548 1.31504 2.412 
-0.259801 1.31831 2.418 
-0.21936 1.3145 2.411 
-0.167063 1.3194 2.42 
-0.133921 1.31995 2.421 
-0.0808164 1.32049 2.422 
-0.0408788 1.31831 2.418 
0.0121429 1.31286 2.408 
0.0519114 1.31613 2.414 
0.124662 1.31504 2.412 
0.171055 1.31559 2.413 
0.262974 1.31177 2.406 
0.329122 1.31231 2.407 
0.362141 1.31231 2.407 
0.422101 1.31395 2.41 
0.562119 1.31668 2.415 
-0.846009 1.31837 2.406 
-0.647169 1.31673 2.403 
-0.553714 1.31399 2.398 
-0.494502 1.31399 2.398 
-0.324523 1.31837 2.406 
-0.238114 1.31508 2.4 
-0.166235 1.31947 2.408 
-0.126385 1.31727 2.404 
-0.0734977 1.31508 2.4 
-0.0407098 1.31947 2.408 
0.0187105 1.31673 2.403 
0.0580253 1.31125 2.393 
0.111242 1.31947 2.408 
0.170276 1.31618 2.402 
0.249046 1.31454 2.399 
0.321714 1.31563 2.401 
0.360185 1.3118 2.394 
0.440287 1.31563 2.401 
0.485588 1.31344 2.397 
0.589085 1.3096 2.39 
0.700851 1.31015 2.391 
-0.847295 1.31671 2.391 
-0.787596 1.31561 2.389 
-0.696708 1.31726 2.392 
-0.571538 1.31616 2.39 
-0.442237 1.32167 2.4 
-0.33562 1.31671 2.391 
-0.230564 1.31616 2.39 
-0.158236 1.31451 2.387 
-0.0796152 1.31396 2.386 
-0.0470609 1.31891 2.395 
0.0186171 1.31671 2.391 
0.0512448 1.31231 2.383 
0.0973771 1.31726 2.392 
0.189413 1.31836 2.394 
0.221604 1.31451 2.387 
0.313158 1.31396 2.386 
0.346034 1.31451 2.387 
0.379255 1.31616 2.39 
0.458325 1.31726 2.392 
0.528518 1.31231 2.383 
0.599176 1.30955 2.378 
-0.980522 1.31718 2.38 
-0.679296 1.31552 2.377 
-0.446765 1.32216 2.389 
-0.412086 1.31608 2.378 
-0.359287 1.31386 2.374 
-0.294897 1.31718 2.38 
-0.241945 1.31331 2.373 
-0.163888 1.31386 2.374 
-0.105445 1.31608 2.378 
-0.0728239 1.31608 2.378 
-0.00757483 1.31497 2.376 
0.0641048 1.31442 2.375 
0.175246 1.31718 2.38 
0.239836 1.31331 2.373 
0.331821 1.31663 2.379 
0.365375 1.31995 2.385 
0.402939 1.31442 2.375 
0.586374 1.31663 2.379 
0.662743 1.31276 2.372 
0.737115 1.31774 2.381 
-0.532666 1.31426 2.363 
-0.365184 1.31815 2.37 
-0.332251 1.31648 2.367 
-0.293782 1.31871 2.371 
-0.241945 1.31982 2.373 
-0.195709 1.31537 2.365 
-0.0923191 1.32149 2.376 
-0.0270284 1.31648 2.367 
0.0379606 1.31815 2.37 
0.102853 1.31648 2.367 
0.147686 1.31092 2.357 
0.193198 1.31259 2.36 
0.232637 1.31593 2.366 
0.284207 1.31426 2.363 
0.343425 1.3176 2.369 
0.413344 1.31259 2.36 
0.49021 1.31036 2.356 
0.659669 1.31315 2.361 
-0.953261 1.31962 2.361 
-0.756039 1.31459 2.352 
-0.497922 1.31459 2.352 
-0.375635 1.31571 2.354 
-0.323417 1.31348 2.35 
-0.291304 1.31403 2.351 
-0.24699 1.31851 2.359 
-0.214902 1.32018 2.362 
-0.136499 1.31403 2.351 
-0.0719358 1.31292 2.349 
0.0247453 1.31348 2.35 
0.07626 1.31236 2.348 
0.121974 1.31906 2.36 
0.160006 1.31236 2.348 
0.217983 1.31236 2.348 
0.256307 1.31068 2.345 
0.321602 1.31459 2.352 
0.425752 1.31739 2.357 
0.502711 1.31571 2.354 
0.600097 1.31683 2.356 
0.757492 1.30956 2.343 
-0.891551 1.32105 2.352 
-0.591429 1.31374 2.339 
-0.212901 1.31431 2.34 
-0.18111 1.31655 2.344 
-0.090998 1.31543 2.342 
-0.0459409 1.31318 2.338 
-0.00744731 1.31206 2.336 
0.0247559 1.32048 2.351 
0.139901 1.3115 2.335 
0.197473 1.31094 2.334 
0.262965 1.31824 2.347 
0.338786 1.31262 2.337 
0.423584 1.31711 2.345 
0.498013 1.30981 2.332 
0.60704 1.31037 2.333 
-0.985916 1.31565 2.331 
-0.65448 1.3179 2.335 
-0.403422 1.31395 2.328 
-0.212355 1.31734 2.334 
-0.13499 1.31226 2.325 
-0.0712621 1.31339 2.327 
-0.00744412 1.3179 2.335 
0.178415 1.31847 2.336 
0.235995 1.3179 2.335 
0.268027 1.3179 2.335 
0.349503 1.31113 2.323 
0.572818 1.3117 2.324 
-0.650837 1.31694 2.322 
-0.401169 1.31297 2.315 
-0.217915 1.31864 2.325 
-0.160022 1.31467 2.318 
-0.115953 1.31977 2.327 
-0.0201006 1.3141 2.317 
0.0945274 1.31694 2.322 
0.177804 1.32034 2.328 
0.291514 1.31467 2.318 
0.375481 1.31921 2.326 
0.579443 1.31864 2.325 
0.632196 1.309 2.308 
-0.469 1.31362 2.305 
-0.267789 1.31932 2.315 
-0.210535 1.31875 2.314 
-0.146603 1.31476 2.307 
-0.0581164 1.31761 2.312 
-0.00102538 1.31476 2.307 
0.0495459 1.31305 2.304 
0.106483 1.31362 2.305 
0.150686 1.31305 2.304 
0.183083 1.31875 2.314 
0.239183 1.31305 2.304 
0.308717 1.31305 2.304 
0.435142 1.31305 2.304 
0.614794 1.31875 2.314 
0.690082 1.31704 2.311 
-0.542287 1.31364 2.294 
-0.315435 1.3125 2.292 
-0.259518 1.31594 2.298 
-0.190744 1.31994 2.305 
-0.133132 1.31307 2.293 
-0.0136547 1.31823 2.302 
0.0369195 1.31994 2.305 
0.106206 1.31651 2.299 
0.144427 1.31994 2.305 
0.219359 1.31422 2.295 
0.287741 1.31021 2.288 
0.419566 1.31021 2.288 
0.526971 1.31193 2.291 
-0.634197 1.31476 2.285 
-0.39805 1.32166 2.297 
-0.208897 1.32109 2.296 
-0.0890164 1.31821 2.291 
-0.00101693 1.31649 2.288 
0.112318 1.32051 2.295 
0.355856 1.31303 2.282 
0.48002 1.31016 2.277 
0.740357 1.31764 2.29 
1.73322 1.33625 7.192 
1.88897 1.33476 7.184 
2.34654 1.33718 7.197 
2.49928 1.33439 7.182 
2.33242 1.3375 7.094 
2.00653 1.33439 6.976 
-0.0720415 1.32797 6.309 
-0.51472 1.32631 6.22 
-0.0541076 1.32993 6.237 
0.426045 1.33313 6.252 
-0.778897 1.32825 6.15 
-0.424354 1.3276 6.147 
-0.120629 1.32588 6.139 
0.573738 1.33473 6.18 
1.5872 1.33149 6.165 
-1.78728 1.3296 6.079 
-1.32268 1.332 6.09 
-0.819535 1.32894 6.076 
-0.554178 1.33222 6.091 
0.0640009 1.32938 6.078 
0.415142 1.33244 6.092 
1.29564 1.32697 6.067 
1.88164 1.32938 6.078 
1.9987 1.3296 6.079 
-1.5146 1.32656 5.99 
-1.08641 1.32546 5.985 
-0.763066 1.33432 6.025 
-0.365247 1.33033 6.007 
0.195327 1.33188 6.014 
0.523056 1.32612 5.988 
1.3305 1.32856 5.999 
1.94465 1.3321 6.015 
2.36543 1.32745 5.994 
2.75328 1.3321 6.015 
-1.64142 1.32596 5.914 
-1.43073 1.32618 5.915 
-1.33223 1.32506 5.91 
-1.25264 1.32663 5.917 
-1.13708 1.32439 5.907 
-1.05944 1.32865 5.926 
-0.882973 1.33224 5.942 
-0.524761 1.33336 5.947 
0.371062 1.32775 5.922 
0.566033 1.32775 5.922 
0.745385 1.32887 5.927 
0.825855 1.32753 5.921 
0.909377 1.33089 5.936 
1.4022 1.33493 5.954 
1.8174 1.32798 5.923 
2.15218 1.33403 5.95 
2.37592 1.33134 5.938 
-3.11365 1.32652 5.845 
-1.2866 1.32766 5.85 
-0.967253 1.32993 5.86 
-0.725348 1.32857 5.854 
0.222746 1.33152 5.867 
0.382143 1.32607 5.843 
0.641916 1.33288 5.873 
0.755736 1.33469 5.881 
0.977621 1.32925 5.857 
1.09029 1.32948 5.858 
1.29568 1.32584 5.842 
1.91648 1.33401 5.878 
2.18319 1.32948 5.858 
2.35635 1.32743 5.849 
-1.79794 1.33016 5.791 
-0.972424 1.33108 5.795 
-0.763224 1.32671 5.776 
-0.0659667 1.32694 5.777 
0.172315 1.33108 5.795 
0.456759 1.32602 5.773 
0.91656 1.32671 5.776 
1.17599 1.33337 5.805 
1.49658 1.33521 5.813 
1.75584 1.32625 5.774 
1.89875 1.32648 5.775 
2.04594 1.32947 5.788 
2.21579 1.33613 5.817 
2.51555 1.33429 5.809 
-1.73841 1.32489 5.7 
-1.38162 1.32768 5.712 
-0.848647 1.32745 5.711 
-0.331755 1.32815 5.714 
0.138941 1.33187 5.73 
0.498073 1.32536 5.702 
1.06572 1.33094 5.726 
1.30251 1.3321 5.731 
1.60936 1.32582 5.704 
1.74733 1.33559 5.746 
1.89768 1.33047 5.724 
2.07079 1.3307 5.725 
2.33332 1.32815 5.714 
-1.77279 1.33113 5.66 
-0.886244 1.32901 5.651 
-0.497318 1.32548 5.636 
-0.033585 1.3316 5.662 
0.445682 1.32478 5.633 
0.990099 1.32948 5.653 
1.17601 1.32924 5.652 
1.37662 1.3283 5.648 
1.62657 1.32995 5.655 
1.75378 1.3323 5.665 
1.96929 1.33089 5.659 
2.17458 1.33301 5.668 
-1.63051 1.3319 5.598 
-1.32357 1.33214 5.599 
-0.708733 1.33143 5.596 
-0.140062 1.32572 5.572 
0.181231 1.32762 5.58 
0.428013 1.33333 5.604 
0.519706 1.3319 5.598 
0.962694 1.32857 5.584 
1.31412 1.32762 5.58 
1.62698 1.33309 5.603 
1.71523 1.33 5.59 
1.82747 1.33357 5.605 
2.05447 1.33119 5.595 
2.22987 1.32595 5.573 
-1.4245 1.32705 5.514 
-0.458034 1.3321 5.535 
0.0126912 1.32849 5.52 
0.376708 1.33041 5.528 
0.513672 1.33162 5.533 
0.953039 1.33041 5.528 
1.25296 1.3268 5.513 
1.47136 1.33282 5.538 
1.71044 1.32969 5.525 
1.84386 1.32753 5.516 
2.05461 1.3268 5.513 
2.21547 1.33258 5.537 
-1.64902 1.32806 5.456 
-1.24212 1.32513 5.444 
0.0274879 1.32684 5.451 
0.523595 1.33341 5.478 
0.94304 1.33146 5.47 
1.18143 1.32952 5.462 
1.3364 1.33463 5.483 
1.53029 1.33317 5.477 
1.71123 1.33365 5.479 
1.99211 1.33049 5.466 
2.23205 1.33049 5.466 
2.39219 1.32781 5.455 
-1.24251 1.32456 5.381 
-0.609268 1.32801 5.395 
0.515757 1.32826 5.396 
0.827264 1.32924 5.4 
1.07693 1.32653 5.389 
1.19454 1.32579 5.386 
1.45032 1.32998 5.403 
1.70421 1.33146 5.409 
1.95396 1.32973 5.402 
2.04667 1.33219 5.412 
2.31052 1.33022 5.404 
-0.822048 1.32788 5.335 
-0.324083 1.32663 5.33 
-0.090329 1.32987 5.343 
0.642142 1.32887 5.339 
0.758615 1.32763 5.334 
1.04913 1.32489 5.323 
1.13697 1.32514 5.324 
1.40831 1.3331 5.356 
1.62295 1.32837 5.337 
1.73353 1.3346 5.362 
1.9612 1.32937 5.341 
2.10537 1.32788 5.335 
2.26638 1.32788 5.335 
2.34483 1.33086 5.347 
-0.853786 1.32364 5.26 
-0.392729 1.32616 5.27 
-0.0456405 1.32389 5.261 
0.564426 1.33295 5.297 
1.02753 1.33044 5.287 
1.17103 1.32867 5.28 
1.41301 1.32465 5.264 
1.60167 1.3254 5.267 
1.79496 1.32943 5.283 
2.06209 1.33345 5.299 
2.2973 1.33496 5.305 
-1.62966 1.32357 5.203 
-1.12048 1.32917 5.225 
-0.573751 1.32459 5.207 
-0.116534 1.32383 5.204 
0.312695 1.32764 5.219 
0.701983 1.33273 5.239 
0.917764 1.33298 5.24 
1.18978 1.33171 5.235 
1.39958 1.32637 5.214 
1.57034 1.32561 5.211 
1.65128 1.33324 5.241 
1.79096 1.33019 5.229 
2.0178 1.32841 5.222 
2.20362 1.32815 5.221 
-1.7281 1.32576 5.156 
-1.5041 1.32782 5.164 
-1.23228 1.32499 5.153 
-0.825631 1.33039 5.174 
-0.497112 1.32499 5.153 
-0.312956 1.32345 5.147 
-0.144449 1.33219 5.181 
0.252287 1.3255 5.155 
0.736997 1.33245 5.182 
0.933511 1.32885 5.168 
1.16329 1.33219 5.181 
1.26937 1.32422 5.15 
1.37571 1.33142 5.178 
1.48534 1.32782 5.164 
1.56791 1.32576 5.156 
1.717 1.33168 5.179 
1.90172 1.33168 5.179 
2.12988 1.33219 5.181 
-1.63584 1.3225 5.089 
-1.20537 1.3251 5.099 
-0.730441 1.32639 5.104 
-0.519066 1.32302 5.091 
-0.184023 1.32432 5.096 
0.0258037 1.32977 5.117 
0.389595 1.32561 5.101 
0.684698 1.32795 5.11 
0.811828 1.32951 5.116 
0.922131 1.32665 5.105 
1.17401 1.32639 5.104 
1.31379 1.32613 5.103 
1.43166 1.33159 5.124 
1.56092 1.33393 5.133 
1.63452 1.3251 5.099 
1.81781 1.32613 5.103 
2.05864 1.32795 5.11 
2.26242 1.33237 5.127 
-1.53925 1.32543 5.047 
-1.27389 1.32307 5.038 
-1.16492 1.3249 5.045 
-0.834875 1.32832 5.058 
-0.738756 1.33016 5.065 
-0.5441 1.32989 5.064 
-0.375961 1.3249 5.045 
-0.182073 1.32412 5.042 
-0.0577566 1.32832 5.058 
0.247246 1.32674 5.052 
0.692018 1.32911 5.061 
0.817954 1.33068 5.067 
0.926235 1.32648 5.051 
1.09145 1.32517 5.046 
1.21508 1.32412 5.042 
1.30503 1.33121 5.069 
1.42371 1.32517 5.046 
1.59835 1.33226 5.073 
1.71376 1.32464 5.044 
1.79037 1.33016 5.065 
1.9068 1.33383 5.079 
2.05197 1.32858 5.059 
2.29471 1.33252 5.074 
-1.5692 1.32946 5.01 
-1.48109 1.32442 4.991 
-1.36302 1.32946 5.01 
-1.2241 1.32787 5.004 
-1.11716 1.33131 5.017 
-0.842376 1.33211 5.02 
-0.729276 1.3268 5 
-0.606662 1.32866 5.007 
-0.5256 1.33211 5.02 
-0.359392 1.32866 5.007 
-0.23524 1.32574 4.996 
-0.0982482 1.3268 5 
0.0937473 1.32601 4.997 
0.380888 1.32335 4.987 
0.643423 1.32866 5.007 
0.875554 1.32654 4.999 
0.9904 1.33344 5.025 
1.12018 1.32388 4.989 
1.23461 1.32919 5.009 
1.32736 1.32574 4.996 
1.46824 1.32919 5.009 
1.55975 1.32521 4.994 
1.70944 1.32442 4.991 
1.81145 1.32893 5.008 
2.00741 1.33131 5.017 
-1.68895 1.32926 4.958 
-1.59437 1.3298 4.96 
-1.4864 1.3306 4.963 
-1.35781 1.3247 4.941 
-1.14276 1.32685 4.949 
-1.0086 1.32899 4.957 
-0.707973 1.32631 4.947 
-0.640757 1.32765 4.952 
-0.533248 1.3306 4.963 
-0.354583 1.32444 4.94 
-0.246505 1.32631 4.947 
-0.0700758 1.32658 4.948 
0.10636 1.32604 4.946 
0.324851 1.33167 4.967 
0.542234 1.33007 4.961 
0.661384 1.32336 4.936 
0.892327 1.32444 4.94 
1.0722 1.32899 4.957 
1.17933 1.32712 4.95 
1.3154 1.32738 4.951 
1.44288 1.33221 4.969 
1.59349 1.33275 4.971 
1.67026 1.32872 4.956 
1.79589 1.33114 4.965 
1.87157 1.32685 4.949 
2.09473 1.3306 4.963 
-1.64062 1.3258 4.895 
-1.37707 1.33068 4.913 
-1.28089 1.32878 4.906 
-1.14792 1.33068 4.913 
-1.06813 1.33203 4.918 
-0.865739 1.33203 4.918 
-0.715273 1.32824 4.904 
-0.649058 1.3304 4.912 
-0.528091 1.33122 4.915 
-0.377286 1.32255 4.883 
-0.176439 1.32336 4.886 
0.17273 1.32824 4.904 
0.387608 1.32688 4.899 
0.523828 1.33149 4.916 
0.62993 1.3277 4.902 
0.749899 1.3258 4.895 
0.929021 1.3323 4.919 
1.12732 1.32743 4.901 
1.19845 1.33176 4.917 
1.27913 1.33149 4.916 
1.40052 1.33149 4.916 
1.46079 1.32499 4.892 
1.57233 1.32851 4.905 
1.66347 1.32607 4.896 
1.80331 1.33013 4.911 
1.93006 1.33393 4.925 
2.05042 1.33311 4.922 
-1.48878 1.32364 4.838 
-1.22584 1.32637 4.848 
-1.09599 1.3302 4.862 
-0.853944 1.32719 4.851 
-0.732648 1.32446 4.841 
-0.640601 1.32637 4.848 
-0.546816 1.32473 4.842 
-0.468267 1.32801 4.854 
-0.24207 1.32911 4.858 
-0.175103 1.32665 4.849 
0.130612 1.32391 4.839 
0.396055 1.32364 4.838 
0.582967 1.3261 4.847 
0.703376 1.32747 4.852 
0.768983 1.32582 4.846 
0.839426 1.33212 4.869 
0.969215 1.32692 4.85 
1.03703 1.32856 4.856 
1.11375 1.32473 4.842 
1.18309 1.32801 4.854 
1.32876 1.32719 4.851 
1.39214 1.32418 4.84 
1.47973 1.3313 4.866 
1.56079 1.33212 4.869 
1.66903 1.33321 4.873 
1.91674 1.32883 4.857 
-1.53136 1.32779 4.805 
-1.3631 1.33083 4.816 
-1.1354 1.32724 4.803 
-1.00697 1.33166 4.819 
-0.871123 1.32613 4.799 
-0.792289 1.32641 4.8 
-0.712382 1.32475 4.794 
-0.555705 1.32751 4.804 
-0.477715 1.33055 4.815 
-0.304582 1.32447 4.793 
-0.213019 1.32751 4.804 
-0.0810476 1.32475 4.794 
0.234767 1.32558 4.797 
0.48422 1.32392 4.791 
0.712109 1.33221 4.821 
0.7895 1.3289 4.809 
0.917991 1.32392 4.791 
0.985972 1.32696 4.802 
1.09046 1.32586 4.798 
1.17237 1.32917 4.81 
1.31233 1.32392 4.791 
1.47957 1.33249 4.822 
1.55313 1.32751 4.804 
1.66479 1.33249 4.822 
1.80881 1.33138 4.818 
1.96254 1.32807 4.806 
2.08944 1.33332 4.825 
-1.61148 1.33093 4.769 
-1.42231 1.32534 4.749 
-1.27791 1.32423 4.745 
-1.21282 1.32423 4.745 
-1.01819 1.32507 4.748 
-0.837749 1.32814 4.759 
-0.691353 1.32283 4.74 
-0.563201 1.3273 4.756 
-0.497854 1.32702 4.755 
-0.393074 1.32562 4.75 
-0.262642 1.32507 4.748 
-0.197218 1.32311 4.741 
0.285733 1.33093 4.769 
0.675984 1.32646 4.753 
0.924722 1.32786 4.758 
1.12454 1.3326 4.775 
1.25607 1.33316 4.777 
1.37784 1.32423 4.745 
1.49815 1.32702 4.755 
1.59282 1.32981 4.765 
1.69135 1.32507 4.748 
1.78516 1.32702 4.755 
1.94743 1.33093 4.769 
2.07958 1.33176 4.772 
2.24959 1.32395 4.744 
-1.56304 1.32513 4.702 
-1.41033 1.3271 4.709 
-1.2795 1.32541 4.703 
-1.11578 1.3302 4.72 
-0.928542 1.32175 4.69 
-0.774628 1.32259 4.693 
-0.633265 1.32316 4.695 
-0.556215 1.32372 4.697 
-0.467595 1.32823 4.713 
-0.324116 1.32316 4.695 
0.165369 1.32316 4.695 
0.371863 1.32456 4.7 
0.578059 1.32428 4.699 
0.798922 1.3271 4.709 
1.00329 1.324 4.698 
1.28905 1.32626 4.706 
1.36797 1.32766 4.711 
1.47168 1.32795 4.712 
1.61525 1.32907 4.716 
1.73574 1.33217 4.727 
1.83794 1.33105 4.723 
1.93191 1.3333 4.731 
2.12391 1.33161 4.725 
-1.53332 1.32352 4.651 
-1.39356 1.32409 4.653 
-1.2305 1.32722 4.664 
-1.1245 1.32295 4.649 
-1.00189 1.32949 4.672 
-0.939001 1.3312 4.678 
-0.820322 1.32608 4.66 
-0.640228 1.3238 4.652 
-0.539742 1.32778 4.666 
-0.449552 1.32608 4.66 
-0.29524 1.32209 4.646 
0.151611 1.32835 4.668 
0.344085 1.32978 4.673 
0.534791 1.32579 4.659 
0.661619 1.3238 4.652 
0.765859 1.3275 4.665 
0.918066 1.32551 4.658 
1.04811 1.32835 4.668 
1.15889 1.32323 4.65 
1.31903 1.33035 4.675 
1.39032 1.32494 4.656 
1.49508 1.32722 4.664 
1.64721 1.32608 4.66 
1.73895 1.32778 4.666 
1.84097 1.3275 4.665 
-2.07497 1.32363 4.607 
-1.55944 1.32593 4.615 
-1.40384 1.32249 4.603 
-1.20335 1.32421 4.609 
-1.11749 1.32737 4.62 
-1.00124 1.3245 4.61 
-0.851122 1.32708 4.619 
-0.750552 1.32852 4.624 
-0.673121 1.32593 4.615 
-0.546741 1.32651 4.617 
-0.470228 1.32507 4.612 
-0.407402 1.32651 4.617 
-0.331614 1.32737 4.62 
-0.267192 1.3222 4.602 
0.238831 1.32766 4.621 
0.402861 1.32507 4.612 
0.503105 1.32249 4.603 
0.604529 1.32335 4.606 
0.706238 1.3245 4.61 
0.799256 1.33197 4.636 
1.03464 1.32392 4.608 
1.15116 1.32708 4.619 
1.29335 1.32996 4.629 
1.38772 1.32306 4.605 
1.45152 1.32363 4.607 
1.63449 1.32852 4.624 
1.74526 1.32593 4.615 
1.87431 1.32766 4.621 
1.99315 1.33082 4.632 
-1.55882 1.32728 4.576 
-1.41124 1.33018 4.586 
-1.24604 1.32844 4.58 
-1.11622 1.32351 4.563 
-1.0443 1.32757 4.577 
-0.89537 1.33018 4.586 
-0.779231 1.32525 4.569 
-0.680136 1.32757 4.577 
-0.540228 1.32322 4.562 
-0.454301 1.32815 4.579 
-0.36596 1.3267 4.574 
0.198276 1.32351 4.563 
0.386993 1.3267 4.574 
0.489091 1.33134 4.59 
0.611941 1.32467 4.567 
0.713272 1.3267 4.574 
0.787533 1.32496 4.568 
1.05187 1.32641 4.573 
1.12838 1.32786 4.578 
1.22967 1.32873 4.581 
1.35447 1.32786 4.578 
1.42858 1.3267 4.574 
1.62723 1.32496 4.568 
1.729 1.32612 4.572 
1.96291 1.33163 4.591 
-2.11789 1.32051 4.51 
-1.42231 1.32959 4.541 
-1.25951 1.32871 4.538 
-1.17391 1.33047 4.544 
-1.09403 1.32432 4.523 
-1.00939 1.32725 4.533 
-0.897657 1.32754 4.534 
-0.758306 1.32315 4.519 
-0.646864 1.32344 4.52 
-0.474087 1.32578 4.528 
-0.374454 1.32491 4.525 
-0.275501 1.32666 4.531 
0.22214 1.329 4.539 
0.408127 1.32637 4.53 
0.482378 1.32549 4.527 
0.594292 1.32578 4.528 
0.741726 1.32286 4.518 
0.93074 1.32725 4.533 
1.13272 1.33076 4.545 
1.20461 1.32754 4.534 
1.2897 1.32549 4.527 
1.50714 1.33105 4.546 
1.61832 1.33018 4.543 
1.71047 1.32432 4.523 
1.87048 1.33222 4.55 
-2.21542 1.32461 4.482 
-1.5022 1.32461 4.482 
-1.38508 1.33023 4.501 
-1.30429 1.32343 4.478 
-1.22454 1.33023 4.501 
-1.12275 1.32668 4.489 
-1.06117 1.32668 4.489 
-0.950751 1.32727 4.491 
-0.89053 1.32934 4.498 
-0.82901 1.32964 4.499 
-0.739965 1.32491 4.483 
-0.555844 1.32579 4.486 
-0.394696 1.32195 4.473 
-0.334155 1.3252 4.484 
-0.236367 1.32875 4.496 
0.280646 1.32372 4.479 
0.39203 1.32638 4.488 
0.48988 1.32461 4.482 
0.587467 1.32284 4.476 
0.722551 1.32284 4.476 
0.857826 1.32313 4.477 
1.10571 1.32579 4.486 
1.20524 1.32698 4.49 
1.26458 1.32461 4.482 
1.44443 1.3317 4.506 
1.57305 1.3255 4.485 
1.75155 1.33023 4.501 
1.86962 1.32638 4.488 
2.10498 1.32727 4.491 
-1.52261 1.32259 4.434 
-1.37477 1.3208 4.428 
-1.23231 1.32438 4.44 
-1.12774 1.33035 4.46 
-0.965621 1.32617 4.446 
-0.904834 1.32647 4.447 
-0.821087 1.32915 4.456 
-0.744378 1.32319 4.436 
-0.294132 1.32349 4.437 
0.192932 1.32438 4.44 
0.328475 1.33064 4.461 
0.683105 1.33005 4.459 
0.974743 1.32736 4.45 
1.03323 1.32408 4.439 
1.22809 1.32408 4.439 
1.42391 1.32498 4.442 
1.56323 1.32945 4.457 
1.61635 1.32289 4.435 
1.76833 1.32736 4.45 
1.85046 1.32498 4.442 
-2.0509 1.32241 4.393 
-1.47941 1.32874 4.414 
-1.35585 1.32633 4.406 
-1.2496 1.32904 4.415 
-1.17026 1.32151 4.39 
-1.029 1.32572 4.404 
-0.930216 1.32271 4.394 
-0.833204 1.32181 4.391 
-0.775081 1.32542 4.403 
-0.55688 1.32362 4.397 
-0.279989 1.32633 4.406 
0.154908 1.32392 4.398 
0.579461 1.32904 4.415 
0.673607 1.32362 4.397 
0.918 1.32813 4.412 
1.02718 1.32843 4.413 
1.21896 1.32633 4.406 
1.42155 1.32362 4.397 
1.53117 1.32452 4.4 
1.60093 1.33235 4.426 
1.66887 1.32843 4.413 
1.74389 1.33024 4.419 
1.81581 1.32964 4.417 
1.88082 1.32422 4.399 
-1.93447 1.329 4.375 
-1.43937 1.32626 4.366 
-1.28306 1.32566 4.364 
-1.15003 1.32414 4.359 
-1.01825 1.32383 4.358 
-0.885911 1.32262 4.354 
-0.817417 1.32778 4.371 
-0.622535 1.3214 4.35 
-0.563638 1.32323 4.356 
-0.313813 1.32809 4.372 
0.0696905 1.32171 4.351 
0.512314 1.32414 4.359 
0.584338 1.32475 4.361 
0.846204 1.32262 4.354 
0.930678 1.32383 4.358 
1.18285 1.32505 4.362 
1.44382 1.32292 4.355 
1.59631 1.33052 4.38 
1.6994 1.32657 4.367 
1.80392 1.32414 4.359 
-2.17693 1.32782 4.332 
-1.90749 1.3223 4.314 
-1.39725 1.32108 4.31 
-1.31875 1.32537 4.324 
-1.25943 1.32537 4.324 
-1.14449 1.32966 4.338 
-1.04589 1.32537 4.324 
-0.877772 1.3223 4.314 
-0.771249 1.3223 4.314 
-0.583629 1.32629 4.327 
-0.274397 1.32353 4.318 
0.534265 1.33119 4.343 
0.81778 1.32721 4.33 
1.19489 1.32384 4.319 
1.41307 1.32843 4.334 
1.65317 1.33027 4.34 
1.706 1.32506 4.323 
1.81987 1.33027 4.34 
-1.84377 1.32239 4.276 
-1.4045 1.32857 4.296 
-1.28514 1.32703 4.291 
-1.13933 1.32177 4.274 
-1.02303 1.32301 4.278 
-0.827926 1.33012 4.301 
-0.518455 1.32332 4.279 
0.502442 1.32208 4.275 
0.784485 1.32301 4.278 
1.01947 1.32332 4.279 
1.1978 1.32579 4.287 
1.3485 1.32363 4.28 
1.59695 1.32517 4.285 
1.65535 1.32486 4.284 
1.73803 1.32517 4.285 
-1.95851 1.32445 4.245 
-1.37197 1.32039 4.232 
-1.12444 1.32975 4.262 
-1.02437 1.32133 4.235 
-0.885981 1.32289 4.24 
0.172568 1.32258 4.239 
0.767148 1.32507 4.247 
1.01327 1.32694 4.253 
1.12836 1.32507 4.247 
1.32489 1.32351 4.242 
1.43098 1.32476 4.246 
1.59294 1.32382 4.243 
1.87233 1.32382 4.243 
-1.86906 1.32225 4.201 
-1.41037 1.32445 4.208 
-1.35393 1.32571 4.212 
-1.19158 1.32508 4.21 
-1.0382 1.32099 4.197 
-0.762936 1.32288 4.203 
0.413063 1.32225 4.201 
0.886256 1.32319 4.204 
1.11853 1.32508 4.21 
1.23697 1.32823 4.22 
1.38255 1.3235 4.205 
1.58946 1.32288 4.203 
-1.8992 1.32266 4.166 
-1.81254 1.32615 4.177 
-1.37969 1.32869 4.185 
-1.22778 1.32583 4.176 
-1.13259 1.32171 4.163 
-1.07832 1.3252 4.174 
-0.882583 1.32361 4.169 
-0.779828 1.32393 4.17 
0.433105 1.32456 4.172 
0.936966 1.32488 4.173 
1.23287 1.32298 4.167 
1.37499 1.32774 4.182 
1.47401 1.32393 4.17 
1.64365 1.32234 4.165 
-1.99755 1.32352 4.133 
-1.85923 1.32192 4.128 
-1.22826 1.32544 4.139 
-1.08883 1.3216 4.127 
-0.308147 1.32416 4.135 
0.929556 1.32576 4.14 
1.16752 1.32512 4.138 
1.48046 1.33089 4.156 
1.72048 1.32256 4.13 
-1.91364 1.32388 4.099 
-1.80338 1.32549 4.104 
-0.902382 1.32517 4.103 
1.16862 1.32485 4.102 
1.58657 1.32614 4.106 
-1.84427 1.32568 4.07 
-0.81455 1.32177 4.058 
-1.90307 1.32338 4.029 
-1.09586 1.32305 4.028 
0.815391 1.32207 4.025 
-2.08535 1.32383 3.997 
-1.16128 1.32052 3.987 
0.414626 1.32284 3.994 
1.10442 1.32218 3.992 
-1.89125 1.32178 3.958 
-1.0551 1.32178 3.958 
0.444699 1.32545 3.969 
0.660316 1.32111 3.956 
1.14902 1.32144 3.957 
1.22873 1.32545 3.969 
-1.28158 1.31984 3.92 
0.504766 1.32253 3.928 
1.14263 1.32489 3.935 
1.22806 1.32388 3.932 
-1.97667 1.32075 3.891 
-0.578495 1.32143 3.893 
0.863416 1.32143 3.893 
1.34785 1.32517 3.904 
-1.95033 1.32082 3.86 
-0.0970785 1.3215 3.862 
0.772774 1.32322 3.867 
1.1011 1.32253 3.865 
1.34429 1.32185 3.863 
1.56727 1.32219 3.864 
-0.632346 1.32141 3.831 
0.545424 1.32279 3.835 
0.999157 1.32451 3.84 
1.2609 1.32279 3.835 
1.54942 1.32658 3.846 
-0.899006 1.32218 3.803 
-0.575555 1.32218 3.803 
0.0504659 1.32184 3.802 
0.696831 1.32114 3.8 
0.874527 1.32184 3.802 
1.16721 1.32253 3.804 
1.36479 1.32184 3.802 
1.54415 1.32357 3.807 
-0.880628 1.3207 3.769 
-0.570863 1.32175 3.772 
-0.187856 1.32105 3.77 
0.422738 1.32211 3.773 
0.795185 1.32175 3.772 
0.867397 1.3214 3.771 
1.07574 1.32316 3.776 
1.16836 1.32246 3.774 
1.2826 1.32281 3.775 
1.38764 1.32421 3.779 
1.49369 1.32631 3.785 
-0.760777 1.32045 3.739 
-0.596484 1.3201 3.738 
-0.289435 1.32292 3.746 
-0.07347 1.32045 3.739 
0.409326 1.32257 3.745 
0.860726 1.32151 3.742 
1.05889 1.32539 3.753 
1.19984 1.32186 3.743 
1.27309 1.32327 3.747 
1.34469 1.32292 3.746 
1.4854 1.32928 3.764 
-0.949806 1.32252 3.716 
-0.727073 1.32537 3.724 
-0.592176 1.32074 3.711 
-0.418865 1.32003 3.709 
-0.154455 1.32145 3.713 
0.161472 1.32252 3.716 
0.447058 1.32288 3.717 
0.67051 1.3211 3.712 
0.875372 1.32288 3.717 
1.04049 1.32537 3.724 
1.18004 1.32145 3.713 
1.25101 1.3211 3.712 
1.30193 1.3211 3.712 
1.38452 1.32217 3.715 
1.47586 1.32181 3.714 
1.66946 1.32181 3.714 
-0.930761 1.32016 3.681 
-0.739679 1.3216 3.685 
-0.647808 1.31981 3.68 
-0.567652 1.32124 3.684 
-0.385928 1.32196 3.686 
0.0286848 1.32124 3.684 
0.251184 1.32196 3.686 
0.464184 1.32375 3.691 
0.604971 1.3216 3.685 
0.726096 1.32124 3.684 
0.83705 1.32088 3.683 
0.948202 1.32088 3.683 
1.02032 1.32268 3.688 
1.19104 1.32124 3.684 
1.25372 1.32339 3.69 
1.30823 1.32734 3.701 
1.36767 1.3259 3.697 
1.48456 1.3216 3.685 
1.53969 1.32554 3.696 
1.60631 1.32196 3.686 
-1.20398 1.31978 3.652 
-0.947084 1.32484 3.666 
-0.843271 1.31978 3.652 
-0.785083 1.32304 3.661 
-0.733055 1.31978 3.652 
-0.673122 1.32015 3.653 
-0.573055 1.32051 3.654 
-0.45263 1.32015 3.653 
-0.373063 1.32231 3.659 
-0.122025 1.32159 3.657 
-0.0216921 1.32159 3.657 
0.0485015 1.32051 3.654 
0.228891 1.32015 3.653 
0.319441 1.32159 3.657 
0.46104 1.32484 3.666 
0.531446 1.32484 3.666 
0.58126 1.32376 3.663 
0.63013 1.32087 3.655 
0.680641 1.32159 3.657 
0.813293 1.3252 3.667 
0.861006 1.32123 3.656 
0.951802 1.32195 3.658 
1.00335 1.32376 3.663 
1.07136 1.32087 3.655 
1.1563 1.32629 3.67 
1.20237 1.32159 3.657 
1.25562 1.32484 3.666 
1.33463 1.3234 3.662 
1.39016 1.32846 3.676 
1.4402 1.3281 3.675 
1.52127 1.32846 3.676 
1.56443 1.32231 3.659 
1.61595 1.3234 3.662 
-0.971127 1.32653 3.643 
-0.868786 1.32289 3.633 
-0.818949 1.32289 3.633 
-0.738192 1.32106 3.628 
-0.658017 1.31997 3.625 
-0.549675 1.32252 3.632 
-0.499852 1.32252 3.632 
-0.421522 1.32689 3.644 
-0.240569 1.32143 3.629 
-0.190576 1.31997 3.625 
-0.111288 1.32325 3.634 
0.00833436 1.31997 3.625 
0.0680264 1.32034 3.626 
0.227199 1.32034 3.626 
0.366576 1.3207 3.627 
0.457644 1.32507 3.639 
0.506588 1.32252 3.632 
0.556718 1.32325 3.634 
0.608238 1.32689 3.644 
0.656059 1.32252 3.632 
0.765039 1.32143 3.629 
0.835194 1.32216 3.631 
0.885248 1.32252 3.632 
0.935072 1.32252 3.632 
0.986794 1.32507 3.639 
1.04699 1.32543 3.64 
1.11505 1.32325 3.634 
1.16458 1.32289 3.633 
1.25291 1.32143 3.629 
1.36844 1.32725 3.645 
1.43118 1.3298 3.652 
1.51803 1.32689 3.644 
1.56844 1.32725 3.645 
1.61445 1.32398 3.636 
-1.09825 1.32111 3.601 
-0.969272 1.32038 3.599 
-0.891515 1.32221 3.604 
-0.843711 1.32478 3.611 
