-1.24631 1.29103 4.581 
-0.930064 1.28821 4.571 
0.924375 1.26876 4.502 
1.03968 1.27384 4.52 
1.19611 1.26876 4.502 
1.32784 1.26482 4.488 
1.4733 1.26285 4.481 
1.59802 1.26425 4.486 
1.86129 1.25918 4.468 
2.05881 1.26003 4.471 
2.36071 1.25749 4.462 
-2.08475 1.30132 4.573 
-1.87023 1.30047 4.57 
-1.61415 1.2962 4.555 
-1.23434 1.29108 4.537 
-0.745907 1.28595 4.519 
0.562529 1.27286 4.473 
0.990057 1.2703 4.464 
1.07386 1.26803 4.456 
1.29999 1.26205 4.435 
1.40918 1.26177 4.434 
1.61927 1.26433 4.443 
1.73215 1.25778 4.42 
1.83838 1.25579 4.413 
2.33785 1.25095 4.396 
-2.00256 1.30122 4.529 
-1.80653 1.30324 4.536 
-1.33569 1.29318 4.501 
-0.900462 1.28887 4.486 
0.907333 1.26962 4.419 
1.13305 1.26445 4.401 
1.22422 1.27134 4.425 
1.34471 1.27048 4.422 
1.43329 1.26301 4.396 
1.65564 1.26703 4.41 
1.73441 1.26273 4.395 
1.80882 1.26416 4.4 
1.90236 1.26215 4.393 
2.14762 1.25755 4.377 
2.4052 1.25411 4.365 
-1.89781 1.30147 4.487 
-1.51585 1.30118 4.486 
-1.32381 1.29393 4.461 
-1.02707 1.29016 4.448 
0.968765 1.26695 4.368 
1.12687 1.26956 4.377 
1.29085 1.2655 4.363 
1.47412 1.26869 4.374 
1.60429 1.26724 4.369 
1.77429 1.26028 4.345 
1.89132 1.25883 4.34 
-1.96333 1.30822 4.468 
-1.78088 1.30031 4.441 
-1.40898 1.29445 4.421 
-1.28914 1.29592 4.426 
0.201187 1.27513 4.355 
0.984551 1.2684 4.332 
1.27932 1.26605 4.324 
1.3774 1.26898 4.334 
1.47355 1.26986 4.337 
1.53603 1.26254 4.312 
1.64708 1.26605 4.324 
1.77992 1.25932 4.301 
1.86079 1.25815 4.297 
1.94784 1.26108 4.307 
2.125 1.25405 4.283 
2.34278 1.25112 4.273 
-1.75755 1.30422 4.413 
-1.65881 1.30274 4.408 
-1.11978 1.29476 4.381 
0.212597 1.28383 4.344 
1.10267 1.2658 4.283 
1.34913 1.2655 4.282 
1.45146 1.26255 4.272 
1.52357 1.26403 4.277 
1.65264 1.26403 4.277 
1.78172 1.26403 4.277 
2.04778 1.26166 4.269 
2.12527 1.259 4.26 
2.27507 1.25782 4.256 
-2.24732 1.31245 4.4 
-1.91983 1.3032 4.369 
-1.15426 1.29157 4.33 
0.209318 1.27576 4.277 
0.86239 1.26979 4.257 
1.04655 1.26651 4.246 
1.15167 1.26681 4.247 
1.26819 1.26681 4.247 
1.36653 1.27158 4.263 
1.47305 1.26264 4.233 
1.65456 1.25935 4.222 
1.79253 1.26681 4.247 
2.04019 1.26144 4.229 
2.24514 1.25279 4.2 
-2.1307 1.31218 4.359 
-1.67697 1.30345 4.33 
-1.18633 1.29954 4.317 
0.926115 1.27274 4.228 
1.18586 1.26522 4.203 
1.28024 1.26733 4.21 
1.36336 1.26943 4.217 
1.45384 1.26763 4.211 
1.62482 1.26582 4.205 
1.68291 1.26612 4.206 
1.78464 1.26462 4.201 
1.95287 1.26161 4.191 
-2.14955 1.30652 4.301 
-1.6791 1.30773 4.305 
-0.993013 1.29103 4.25 
0.972942 1.26976 4.18 
1.30365 1.26794 4.174 
1.50435 1.26338 4.159 
1.56741 1.26824 4.175 
1.6677 1.26612 4.168 
1.80895 1.26095 4.151 
2.1351 1.25852 4.143 
-2.24857 1.30729 4.265 
-1.68176 1.3033 4.252 
1.09834 1.26713 4.134 
1.19109 1.26928 4.141 
1.35954 1.26744 4.135 
1.49495 1.26683 4.133 
1.6521 1.2656 4.129 
2.04944 1.25916 4.108 
-2.23486 1.31095 4.239 
-1.67391 1.29981 4.203 
0.966041 1.26858 4.102 
1.25712 1.26703 4.097 
1.42001 1.27198 4.113 
1.48807 1.2627 4.083 
1.63769 1.26579 4.093 
1.73133 1.26858 4.102 
2.03914 1.25713 4.065 
2.14644 1.25466 4.057 
-1.69306 1.29949 4.165 
-0.295438 1.2842 4.116 
1.18387 1.27203 4.077 
1.35231 1.27266 4.079 
1.44413 1.26486 4.054 
1.55267 1.26267 4.047 
1.62529 1.26735 4.062 
1.73032 1.26267 4.047 
1.90109 1.26548 4.056 
-2.20622 1.31029 4.163 
-1.99582 1.30714 4.153 
0.15418 1.27818 4.061 
0.905532 1.26937 4.033 
1.28174 1.26937 4.033 
1.36652 1.26591 4.022 
1.4754 1.26465 4.018 
1.61669 1.26307 4.013 
1.68443 1.26433 4.017 
1.76554 1.2593 4.001 
1.87625 1.25993 4.003 
2.06708 1.26244 4.011 
-1.74708 1.30298 4.104 
0.801351 1.27313 4.01 
1.36075 1.27154 4.005 
1.46218 1.26424 3.982 
1.62279 1.2617 3.974 
1.68991 1.26297 3.978 
1.80447 1.26678 3.99 
1.95388 1.25726 3.96 
2.32058 1.2617 3.974 
-1.50668 1.30111 4.063 
0.751111 1.27357 3.977 
1.29602 1.27292 3.975 
1.35427 1.2662 3.954 
1.48182 1.26396 3.947 
1.78955 1.26716 3.957 
1.93369 1.26204 3.941 
-1.63818 1.30159 4.03 
0.745067 1.27414 3.945 
1.19965 1.27414 3.945 
1.24805 1.26833 3.927 
1.31537 1.27091 3.935 
1.4813 1.2651 3.917 
1.73345 1.2609 3.904 
2.01695 1.25735 3.893 
1.21495 1.26705 3.89 
1.27931 1.26738 3.891 
1.40886 1.26868 3.895 
1.47948 1.2651 3.884 
1.6453 1.26151 3.873 
1.76037 1.26021 3.869 
2.0995 1.25988 3.868 
1.21057 1.27312 3.876 
1.25853 1.26787 3.86 
1.34151 1.26623 3.855 
1.43595 1.26557 3.853 
1.54167 1.26557 3.853 
1.67155 1.26787 3.86 
2.00419 1.26393 3.848 
1.03913 1.26919 3.832 
1.25991 1.26919 3.832 
1.39186 1.27448 3.848 
1.4776 1.26654 3.824 
1.70529 1.26422 3.817 
1.99433 1.26157 3.809 
0.877978 1.27469 3.817 
1.2432 1.27335 3.813 
1.38966 1.27335 3.813 
1.55969 1.26701 3.794 
1.82551 1.26367 3.784 
0.155144 1.28314 3.811 
0.880536 1.27371 3.783 
1.1373 1.27068 3.774 
1.36763 1.27304 3.781 
1.49414 1.26597 3.76 
1.78615 1.26092 3.745 
1.97978 1.25991 3.742 
0.18475 1.28138 3.775 
0.782131 1.27595 3.759 
0.977041 1.27459 3.755 
1.17836 1.2695 3.74 
1.34954 1.26644 3.731 
1.47198 1.2661 3.73 
1.67171 1.26237 3.719 
-0.311397 1.28763 3.763 
0.55081 1.27599 3.729 
0.726873 1.27976 3.74 
0.814841 1.27291 3.72 
0.897214 1.27394 3.723 
1.14083 1.27223 3.718 
1.19944 1.26949 3.71 
1.39059 1.26744 3.704 
1.5312 1.26607 3.7 
1.70976 1.27052 3.713 
0.130921 1.28209 3.717 
0.455903 1.27829 3.706 
0.557129 1.27726 3.703 
0.730038 1.2776 3.704 
0.809146 1.27415 3.694 
0.883664 1.27933 3.709 
1.05181 1.27346 3.692 
1.13346 1.27415 3.694 
1.18061 1.27036 3.683 
1.29036 1.26898 3.679 
1.43323 1.27036 3.683 
1.57255 1.26863 3.678 
1.65614 1.26312 3.662 
1.93322 1.26036 3.654 
0.281294 1.28046 3.683 
0.634268 1.27907 3.679 
0.763821 1.27629 3.671 
0.824476 1.27664 3.672 
0.943053 1.27351 3.663 
1.03294 1.27281 3.661 
1.12395 1.27351 3.663 
1.17067 1.26969 3.652 
1.26396 1.27281 3.661 
1.33317 1.27177 3.658 
1.48681 1.26586 3.641 
1.6133 1.27108 3.656 
1.76991 1.2683 3.648 
0.259241 1.28146 3.657 
0.528257 1.2769 3.644 
0.647339 1.27515 3.639 
0.76799 1.27655 3.643 
0.859357 1.27865 3.649 
0.957631 1.2762 3.642 
1.00676 1.27515 3.639 
1.11659 1.27515 3.639 
1.1752 1.27375 3.635 
1.23299 1.27165 3.629 
1.30939 1.26849 3.62 
1.41982 1.26954 3.623 
1.54348 1.26499 3.61 
1.65563 1.26744 3.617 
1.78811 1.26289 3.604 
-0.472286 1.28902 3.65 
0.267213 1.2816 3.629 
0.415987 1.27984 3.624 
0.563725 1.27666 3.615 
0.624268 1.27878 3.621 
0.722415 1.27666 3.615 
0.790089 1.27383 3.607 
0.840268 1.27489 3.61 
0.919758 1.27525 3.611 
0.981641 1.27842 3.62 
1.07558 1.27207 3.602 
1.14444 1.27171 3.601 
1.19716 1.27525 3.611 
1.24876 1.27736 3.617 
1.39742 1.26818 3.591 
1.67422 1.26889 3.593 
2.18078 1.25971 3.567 
-0.329086 1.28729 3.617 
0.146717 1.28266 3.604 
0.265446 1.28302 3.605 
0.314375 1.28088 3.599 
0.45362 1.28373 3.607 
0.540128 1.27768 3.59 
0.591181 1.28159 3.601 
0.697914 1.27803 3.591 
0.755763 1.2759 3.585 
0.806963 1.2791 3.594 
0.854597 1.27661 3.587 
0.925546 1.27946 3.595 
0.974591 1.2791 3.594 
1.03955 1.27412 3.58 
1.08714 1.27234 3.575 
1.13491 1.27092 3.571 
1.18754 1.27483 3.582 
1.23668 1.27483 3.582 
1.32032 1.27021 3.569 
1.39275 1.27376 3.579 
1.46473 1.26807 3.563 
1.64537 1.26415 3.552 
-0.397119 1.29255 3.604 
-0.287071 1.28681 3.588 
0.195123 1.28574 3.585 
0.283328 1.2843 3.581 
0.419818 1.28107 3.572 
0.469344 1.28251 3.576 
0.547373 1.28143 3.573 
0.59572 1.28 3.569 
0.653371 1.27785 3.563 
0.731779 1.2782 3.564 
0.780889 1.27856 3.565 
0.829096 1.27749 3.562 
0.894733 1.27354 3.551 
0.945837 1.27677 3.56 
1.00162 1.27318 3.55 
1.0512 1.27426 3.553 
1.10335 1.2782 3.564 
1.14965 1.27533 3.556 
1.19574 1.27247 3.548 
1.24301 1.27103 3.544 
1.31514 1.27498 3.555 
1.38458 1.27605 3.558 
1.42332 1.26709 3.533 
1.47137 1.26673 3.532 
1.57886 1.26744 3.534 
2.13631 1.25884 3.51 
-0.44247 1.29051 3.571 
-0.353599 1.28798 3.564 
-0.304879 1.2887 3.566 
0.164368 1.28581 3.558 
0.232046 1.2822 3.548 
0.319564 1.28184 3.547 
0.368222 1.28184 3.547 
0.426852 1.28256 3.549 
0.474867 1.28075 3.544 
0.532003 1.27786 3.536 
0.582316 1.28184 3.547 
0.630262 1.28039 3.543 
0.705628 1.27606 3.531 
0.755775 1.27895 3.539 
0.805232 1.28039 3.543 
0.860387 1.27569 3.53 
0.909069 1.27606 3.531 
1.00367 1.27316 3.523 
1.06708 1.27967 3.541 
1.11219 1.27569 3.53 
1.16391 1.27931 3.54 
1.20459 1.271 3.517 
1.25284 1.271 3.517 
1.30663 1.27642 3.532 
1.36668 1.26919 3.512 
1.43658 1.27136 3.518 
1.48231 1.26919 3.512 
1.64253 1.27389 3.525 
-0.40136 1.29412 3.554 
-0.313162 1.2923 3.549 
0.143908 1.2872 3.535 
0.191585 1.28174 3.52 
0.250593 1.2872 3.535 
0.327068 1.28283 3.523 
0.375503 1.28319 3.524 
0.422762 1.27992 3.515 
0.471919 1.28247 3.522 
0.518461 1.2781 3.51 
0.566773 1.27846 3.511 
0.616863 1.28247 3.522 
0.692984 1.28028 3.516 
0.741006 1.27992 3.515 
0.789 1.27955 3.514 
0.836014 1.27773 3.509 
0.883646 1.277 3.507 
0.931224 1.27628 3.505 
1.02797 1.277 3.507 
1.07148 1.27154 3.492 
1.12291 1.27555 3.503 
1.19603 1.27154 3.492 
1.2571 1.27518 3.502 
1.30799 1.26863 3.484 
1.39722 1.27154 3.492 
1.4443 1.27081 3.49 
1.52872 1.26936 3.486 
1.84592 1.27045 3.489 
-0.99055 1.29653 3.534 
-0.533028 1.29213 3.522 
-0.445301 1.28993 3.516 
-0.377453 1.28883 3.513 
-0.281231 1.28956 3.515 
0.0757597 1.2925 3.523 
0.123137 1.28259 3.496 
0.17134 1.28443 3.501 
0.258524 1.28809 3.511 
0.305989 1.28516 3.503 
0.353639 1.28369 3.499 
0.402098 1.28516 3.503 
0.449381 1.28296 3.497 
0.507962 1.28553 3.504 
0.552856 1.27819 3.484 
0.603408 1.28406 3.5 
0.64807 1.27745 3.482 
0.707618 1.28149 3.493 
0.7564 1.28296 3.497 
0.819793 1.27709 3.481 
0.877599 1.27782 3.483 
0.933324 1.27562 3.477 
0.99512 1.28149 3.493 
1.05673 1.27489 3.475 
1.11297 1.27379 3.472 
1.16461 1.27819 3.484 
1.22728 1.27379 3.472 
1.27785 1.27672 3.48 
1.34567 1.26865 3.458 
1.39552 1.27085 3.464 
1.44762 1.27489 3.475 
1.52505 1.26792 3.456 
-0.984103 1.29773 3.511 
-0.531211 1.29736 3.51 
-0.451713 1.29033 3.491 
-0.384778 1.2907 3.492 
-0.241758 1.2944 3.502 
0.122327 1.28368 3.473 
0.170116 1.28479 3.476 
0.237623 1.28886 3.487 
0.295194 1.2896 3.489 
0.340598 1.28035 3.464 
0.388901 1.28294 3.471 
0.436391 1.28257 3.47 
0.483574 1.28146 3.467 
0.53971 1.27925 3.461 
0.589224 1.28368 3.473 
0.645092 1.28109 3.466 
0.702756 1.2822 3.469 
0.759861 1.2822 3.469 
0.823149 1.27703 3.455 
0.926345 1.27555 3.451 
1.03348 1.27925 3.461 
1.08951 1.27814 3.458 
1.13234 1.27296 3.444 
1.18336 1.27703 3.455 
1.23218 1.27851 3.459 
1.3028 1.27333 3.445 
1.35163 1.27481 3.449 
1.42692 1.27444 3.448 
1.48707 1.26927 3.434 
1.54088 1.27481 3.449 
-0.989207 1.3014 3.495 
-0.629881 1.29209 3.47 
-0.534832 1.29247 3.471 
-0.468036 1.29209 3.47 
-0.420192 1.29135 3.468 
-0.353079 1.28949 3.463 
0.0931477 1.28502 3.451 
0.159794 1.288 3.459 
0.225571 1.28427 3.449 
0.311726 1.28837 3.46 
0.358671 1.28651 3.455 
0.404657 1.28204 3.443 
0.452675 1.28427 3.449 
0.501003 1.28688 3.456 
0.546826 1.28316 3.446 
0.595649 1.28651 3.455 
0.642301 1.28502 3.451 
0.705703 1.2798 3.437 
0.752852 1.2798 3.437 
0.800699 1.28092 3.44 
0.844684 1.27608 3.427 
0.904779 1.28129 3.441 
1.01629 1.27906 3.435 
1.06372 1.27943 3.436 
1.11833 1.2772 3.43 
1.18041 1.2731 3.419 
1.27943 1.27832 3.433 
1.31995 1.27199 3.416 
1.40348 1.27124 3.414 
1.50342 1.26863 3.407 
1.60672 1.26901 3.408 
-0.968407 1.29599 3.455 
-0.578923 1.29411 3.45 
-0.530672 1.29186 3.444 
-0.473703 1.29111 3.442 
-0.426362 1.29073 3.441 
-0.359753 1.28886 3.436 
-0.27563 1.29224 3.445 
-0.228836 1.29486 3.452 
0.139634 1.28661 3.43 
0.186469 1.28511 3.426 
0.272014 1.28961 3.438 
0.346969 1.28773 3.433 
0.393029 1.28436 3.424 
0.477855 1.28511 3.426 
0.524087 1.28323 3.421 
0.572518 1.28661 3.43 
0.637834 1.28548 3.427 
0.710555 1.28098 3.415 
0.768343 1.28361 3.422 
0.811951 1.27836 3.408 
0.857946 1.27723 3.405 
0.917756 1.28248 3.419 
1.03179 1.27273 3.393 
1.11148 1.27873 3.409 
1.17592 1.27761 3.406 
1.25891 1.27648 3.403 
1.313 1.27461 3.398 
1.38717 1.27423 3.397 
1.53403 1.27235 3.392 
1.65745 1.2671 3.378 
-0.630556 1.293 3.422 
-0.57691 1.29904 3.438 
-0.498241 1.29073 3.416 
-0.443561 1.29526 3.428 
-0.38747 1.2964 3.431 
-0.320827 1.29337 3.423 
-0.27339 1.29111 3.417 
0.11085 1.2896 3.413 
0.157161 1.28544 3.402 
0.20365 1.28431 3.399 
0.326411 1.29035 3.415 
0.381843 1.28771 3.408 
0.444538 1.27977 3.387 
0.4939 1.28733 3.407 
0.577857 1.28695 3.406 
0.62403 1.28582 3.403 
0.717395 1.28582 3.403 
0.76273 1.28355 3.397 
0.805756 1.27788 3.382 
0.852907 1.27902 3.385 
0.920628 1.28279 3.395 
0.985829 1.28279 3.395 
1.03343 1.27259 3.368 
1.11327 1.27939 3.386 
1.18794 1.27977 3.387 
1.25744 1.27486 3.374 
1.30256 1.27373 3.371 
1.36852 1.27486 3.374 
1.43916 1.27184 3.366 
1.53378 1.27373 3.371 
1.71672 1.26541 3.349 
-0.909282 1.2982 3.411 
-0.861225 1.2963 3.406 
-0.739744 1.2963 3.406 
-0.626871 1.29477 3.402 
-0.563516 1.29934 3.414 
-0.486722 1.29439 3.401 
-0.441103 1.29744 3.409 
-0.373538 1.29021 3.39 
-0.30816 1.28906 3.387 
-0.242897 1.28792 3.384 
0.119227 1.2883 3.385 
0.165516 1.28716 3.382 
0.212412 1.29021 3.39 
0.286733 1.28983 3.389 
0.350262 1.28412 3.374 
0.415184 1.2845 3.375 
0.463123 1.28906 3.387 
0.534448 1.28183 3.368 
0.608372 1.28183 3.368 
0.728281 1.28145 3.367 
0.785337 1.28412 3.374 
0.849631 1.28336 3.372 
0.91195 1.27993 3.363 
0.958369 1.28031 3.364 
1.00481 1.28069 3.365 
1.05066 1.28031 3.364 
1.13272 1.27917 3.361 
1.20756 1.28031 3.364 
1.27759 1.2765 3.354 
1.33042 1.27422 3.348 
1.39722 1.2765 3.354 
1.46513 1.27156 3.341 
1.53433 1.27574 3.352 
1.59155 1.27003 3.337 
2.06247 1.26128 3.314 
-1.00451 1.29759 3.385 
-0.901818 1.29682 3.383 
-0.827076 1.29606 3.381 
-0.725896 1.29759 3.385 
-0.678257 1.29529 3.379 
-0.62466 1.29951 3.39 
-0.500778 1.29184 3.37 
-0.456301 1.29682 3.383 
-0.390289 1.29337 3.374 
-0.344718 1.29606 3.381 
-0.297103 1.29069 3.367 
-0.241964 1.29222 3.371 
0.136499 1.28532 3.353 
0.210845 1.28992 3.365 
0.28411 1.28724 3.358 
0.33047 1.28839 3.361 
0.376128 1.28686 3.357 
0.46851 1.28762 3.359 
0.550795 1.28609 3.355 
0.594506 1.28111 3.342 
0.642459 1.28532 3.353 
0.77975 1.28417 3.35 
0.826199 1.28494 3.352 
0.907883 1.28341 3.348 
0.951247 1.27996 3.339 
0.996752 1.27957 3.338 
1.06277 1.28187 3.344 
1.13514 1.28072 3.341 
1.23486 1.27957 3.338 
1.28027 1.27919 3.337 
1.326 1.27037 3.314 
1.38555 1.27497 3.326 
1.49371 1.27382 3.323 
1.60118 1.27229 3.319 
1.76831 1.26807 3.308 
-1.01643 1.29838 3.363 
-0.932561 1.29723 3.36 
-0.888579 1.30031 3.368 
-0.793101 1.2953 3.355 
-0.702934 1.29877 3.364 
-0.654249 1.29375 3.351 
-0.610458 1.29838 3.363 
-0.536485 1.298 3.362 
-0.481427 1.29877 3.364 
-0.425544 1.29723 3.36 
-0.378661 1.29452 3.353 
-0.322597 1.29105 3.344 
-0.278131 1.29761 3.361 
0.0812305 1.29336 3.35 
0.154389 1.29028 3.342 
0.199456 1.28526 3.329 
0.273424 1.2895 3.34 
0.328701 1.29066 3.343 
0.383043 1.28835 3.337 
0.464465 1.28564 3.33 
0.54784 1.28835 3.337 
0.592016 1.28487 3.328 
0.637478 1.28448 3.327 
0.755686 1.28371 3.325 
0.796961 1.27676 3.307 
0.919614 1.28333 3.324 
0.988988 1.27869 3.312 
1.05291 1.27908 3.313 
1.11755 1.28024 3.316 
1.17625 1.27483 3.302 
1.23816 1.27329 3.298 
1.30426 1.27599 3.305 
1.36155 1.27869 3.312 
1.43208 1.27676 3.307 
1.52143 1.2756 3.304 
1.60155 1.27445 3.301 
-1.36624 1.30683 3.361 
-1.17724 1.30178 3.348 
-0.963376 1.29828 3.339 
-0.917571 1.29828 3.339 
-0.861831 1.29711 3.336 
-0.790028 1.29945 3.342 
-0.688549 1.29828 3.339 
-0.643708 1.30022 3.344 
-0.596941 1.29828 3.339 
-0.540677 1.29517 3.331 
-0.497063 1.30061 3.345 
-0.449288 1.29517 3.331 
-0.384737 1.29322 3.326 
-0.34013 1.29711 3.336 
-0.293485 1.29322 3.326 
0.0805516 1.29167 3.322 
0.135074 1.29011 3.318 
0.179828 1.28467 3.304 
0.371871 1.2905 3.319 
0.416646 1.28817 3.313 
0.461118 1.28545 3.306 
0.568065 1.28117 3.295 
0.615499 1.28584 3.307 
0.750005 1.28311 3.3 
0.801647 1.27884 3.289 
0.983016 1.28 3.292 
1.04529 1.27884 3.289 
1.11081 1.28156 3.296 
1.14761 1.27223 3.272 
1.22092 1.27378 3.276 
1.29795 1.27884 3.289 
1.36931 1.27806 3.287 
1.47976 1.27223 3.272 
1.54307 1.27262 3.273 
1.60751 1.26678 3.258 
1.79687 1.26795 3.261 
-1.18526 1.29961 3.319 
-1.08444 1.29883 3.317 
-0.958182 1.30039 3.321 
-0.903785 1.30078 3.322 
-0.82737 1.2953 3.308 
-0.754307 1.29452 3.306 
-0.657899 1.30117 3.323 
-0.594259 1.30157 3.324 
-0.537755 1.29726 3.313 
-0.455674 1.29648 3.311 
-0.401897 1.29883 3.317 
-0.35532 1.29491 3.307 
-0.301609 1.29804 3.315 
0.0980961 1.29178 3.299 
0.16973 1.2859 3.284 
0.215368 1.28943 3.293 
0.369294 1.2906 3.296 
0.412999 1.2859 3.284 
0.459444 1.28982 3.294 
0.564617 1.28238 3.275 
0.611963 1.28747 3.288 
0.781455 1.28434 3.28 
0.906058 1.28238 3.275 
1.03734 1.27807 3.264 
1.10898 1.27807 3.264 
1.16556 1.2812 3.272 
1.21682 1.27846 3.265 
1.29664 1.27768 3.263 
1.38064 1.27259 3.25 
1.42873 1.27572 3.258 
1.52143 1.27102 3.246 
1.64865 1.27298 3.251 
-1.32413 1.30201 3.302 
-1.07692 1.29886 3.294 
-1.02269 1.29886 3.294 
-0.954143 1.30398 3.307 
-0.906304 1.30043 3.298 
-0.821617 1.29531 3.285 
-0.7801 1.30122 3.3 
-0.723797 1.29767 3.291 
-0.681332 1.3028 3.304 
-0.526591 1.30122 3.3 
-0.452509 1.29649 3.288 
-0.353601 1.29767 3.291 
-0.29888 1.29531 3.285 
0.0974717 1.29255 3.278 
0.187121 1.29058 3.273 
0.28485 1.28584 3.261 
0.347905 1.28742 3.265 
0.392093 1.28545 3.26 
0.509146 1.28742 3.265 
0.562893 1.28742 3.265 
0.732194 1.28584 3.261 
0.847983 1.28506 3.259 
1.02524 1.28308 3.254 
1.08639 1.28151 3.25 
1.15666 1.28032 3.247 
1.2875 1.27756 3.24 
1.36413 1.27441 3.232 
1.41251 1.27007 3.221 
1.47281 1.27638 3.237 
1.54004 1.27323 3.229 
1.61491 1.27638 3.237 
1.67241 1.27283 3.228 
-1.47955 1.30432 3.285 
-1.13429 1.30114 3.277 
-1.07201 1.30194 3.279 
-0.972459 1.30114 3.277 
-0.925241 1.29797 3.269 
-0.872495 1.29956 3.273 
-0.798944 1.29678 3.266 
-0.758066 1.30353 3.283 
-0.71303 1.30353 3.283 
-0.610959 1.29717 3.267 
-0.50309 1.29638 3.265 
-0.456757 1.29201 3.254 
-0.395596 1.29638 3.265 
-0.323636 1.29519 3.262 
-0.278118 1.29161 3.253 
0.123617 1.29281 3.256 
0.203263 1.28804 3.244 
0.248452 1.29161 3.253 
0.32817 1.28923 3.247 
0.372368 1.28804 3.244 
0.488071 1.28804 3.244 
0.577251 1.28844 3.245 
0.762094 1.28486 3.236 
0.850877 1.28486 3.236 
1.04458 1.28288 3.231 
1.20963 1.27931 3.222 
1.34813 1.27653 3.215 
1.435 1.27534 3.212 
1.5236 1.27573 3.213 
1.60244 1.27534 3.212 
1.68951 1.27454 3.21 
1.82186 1.26859 3.195 
-1.30552 1.31053 3.278 
-1.16169 1.30054 3.253 
-1.10327 1.30534 3.265 
-1.04566 1.30054 3.253 
-0.968305 1.30454 3.263 
-0.921279 1.30134 3.255 
-0.865031 1.29734 3.245 
-0.811613 1.29734 3.245 
-0.768989 1.30054 3.253 
-0.698447 1.30214 3.257 
-0.608153 1.30014 3.252 
-0.517974 1.29774 3.246 
-0.455494 1.29734 3.245 
-0.366351 1.29694 3.244 
-0.294331 1.29334 3.235 
-0.250339 1.29534 3.24 
0.0872905 1.29294 3.234 
0.18472 1.29174 3.231 
0.228405 1.28815 3.222 
0.326047 1.28975 3.226 
0.370761 1.29134 3.23 
0.485062 1.28895 3.224 
0.791445 1.28375 3.211 
1.27081 1.27855 3.198 
1.35685 1.27695 3.194 
1.41331 1.27255 3.183 
1.48737 1.27615 3.192 
1.57346 1.27495 3.189 
1.63624 1.26936 3.175 
1.73752 1.27335 3.185 
1.85693 1.27135 3.18 
-1.31341 1.30946 3.253 
-1.21001 1.30383 3.239 
-1.16737 1.30584 3.244 
-1.0876 1.30624 3.245 
-1.01325 1.30222 3.235 
-0.971567 1.30584 3.244 
-0.926494 1.30504 3.242 
-0.870163 1.30061 3.231 
-0.773849 1.30262 3.236 
-0.699999 1.29739 3.223 
-0.655379 1.29658 3.221 
-0.587405 1.30262 3.236 
-0.496773 1.29779 3.224 
-0.399846 1.299 3.227 
-0.346617 1.2986 3.226 
-0.266049 1.29417 3.215 
-0.221324 1.29055 3.206 
0.14843 1.29336 3.213 
0.218543 1.29095 3.207 
0.262209 1.28934 3.203 
0.359098 1.29014 3.205 
0.429444 1.29014 3.205 
0.551859 1.28853 3.201 
0.786022 1.2837 3.189 
1.22119 1.28129 3.183 
1.36491 1.27686 3.172 
1.42493 1.27605 3.17 
1.48488 1.27525 3.168 
1.53791 1.26881 3.152 
1.62645 1.27042 3.156 
1.72497 1.27283 3.162 
-1.35939 1.31109 3.235 
-1.28844 1.30218 3.213 
-1.20664 1.30907 3.23 
-1.16197 1.30866 3.229 
-1.08705 1.3038 3.217 
-1.01675 1.3042 3.218 
-0.947592 1.30623 3.223 
-0.845838 1.29934 3.206 
-0.758588 1.30056 3.209 
-0.716348 1.3038 3.217 
-0.669083 1.29772 3.202 
-0.61772 1.30056 3.209 
-0.510315 1.2961 3.198 
-0.431483 1.2965 3.199 
-0.353264 1.29934 3.206 
-0.299832 1.2965 3.199 
-0.247403 1.29772 3.202 
0.0950037 1.29488 3.195 
0.217452 1.29326 3.191 
0.26008 1.28759 3.177 
0.356521 1.28961 3.182 
0.408773 1.28921 3.181 
0.642994 1.28637 3.174 
1.20968 1.27786 3.153 
1.37012 1.27421 3.144 
1.41961 1.27219 3.139 
1.48697 1.27827 3.154 
1.54929 1.27259 3.14 
1.70479 1.26651 3.125 
-1.39075 1.30773 3.205 
-1.31448 1.31059 3.212 
-1.24011 1.3065 3.202 
-1.18082 1.30895 3.208 
-1.11433 1.30324 3.194 
-1.07453 1.30814 3.206 
-0.976558 1.3065 3.202 
-0.878549 1.30446 3.197 
-0.745812 1.30242 3.192 
-0.701804 1.30202 3.191 
-0.656999 1.29998 3.186 
-0.60588 1.30283 3.193 
-0.507283 1.29712 3.179 
-0.43737 1.29671 3.178 
-0.368195 1.29875 3.183 
-0.289508 1.29834 3.182 
-0.219529 1.29753 3.18 
0.137486 1.291 3.164 
0.232679 1.28937 3.16 
0.319781 1.291 3.164 
0.362726 1.28937 3.16 
0.405561 1.28774 3.156 
0.449708 1.29018 3.162 
0.613955 1.28896 3.159 
1.15153 1.27958 3.136 
1.37173 1.27631 3.128 
1.42814 1.27305 3.12 
1.49182 1.26897 3.11 
1.54947 1.27427 3.123 
1.68602 1.27386 3.122 
-1.43361 1.30749 3.183 
-1.36117 1.30502 3.177 
-1.28111 1.30338 3.173 
-1.24148 1.30749 3.183 
-1.19594 1.30543 3.178 
-1.1084 1.30502 3.177 
-0.970763 1.30749 3.183 
-0.86948 1.29968 3.164 
-0.794605 1.30502 3.177 
-0.701874 1.29475 3.152 
-0.653699 1.30215 3.17 
-0.555741 1.29681 3.157 
-0.503613 1.29639 3.156 
-0.435168 1.29886 3.162 
-0.331379 1.30009 3.165 
-0.217596 1.29475 3.152 
0.127746 1.289 3.138 
0.239287 1.28695 3.133 
0.317457 1.29023 3.141 
0.39489 1.28982 3.14 
0.446579 1.28982 3.14 
0.609679 1.28859 3.137 
0.677667 1.28695 3.133 
1.28974 1.27175 3.096 
1.39032 1.27832 3.112 
1.53202 1.27545 3.105 
1.61564 1.27421 3.102 
1.69333 1.27503 3.104 
-1.44104 1.30712 3.161 
-1.34394 1.30547 3.157 
-1.25812 1.30629 3.159 
-1.16886 1.3034 3.152 
-0.989132 1.30588 3.158 
-0.918361 1.30381 3.153 
-0.848887 1.3034 3.152 
-0.801814 1.2972 3.137 
-0.760958 1.30092 3.146 
-0.692127 1.30133 3.147 
-0.640119 1.30092 3.146 
-0.587956 1.30009 3.144 
-0.534325 1.29554 3.133 
-0.46764 1.30133 3.147 
-0.413986 1.29554 3.133 
-0.327401 1.29306 3.127 
-0.250507 1.29472 3.131 
0.067287 1.29389 3.129 
0.144549 1.29389 3.129 
0.230249 1.29306 3.127 
0.306774 1.29017 3.12 
0.392877 1.29182 3.124 
0.434477 1.2881 3.115 
0.57995 1.28851 3.116 
0.791384 1.28479 3.107 
1.4215 1.27652 3.087 
1.54007 1.27652 3.087 
1.72417 1.27487 3.083 
1.7892 1.26701 3.064 
-1.34918 1.3108 3.149 
-1.2764 1.30705 3.14 
-1.21571 1.30664 3.139 
-1.0186 1.30788 3.142 
-0.928243 1.30206 3.128 
-0.852094 1.30372 3.132 
-0.807321 1.30081 3.125 
-0.763229 1.29873 3.12 
-0.686409 1.29914 3.121 
-0.636863 1.30289 3.13 
-0.584777 1.30164 3.127 
-0.539802 1.29665 3.115 
-0.44708 1.30039 3.124 
-0.403708 1.29873 3.12 
-0.309845 1.29998 3.123 
-0.249387 1.29748 3.117 
0.0668139 1.29332 3.107 
0.305103 1.29165 3.103 
0.466556 1.29082 3.101 
1.27974 1.27875 3.072 
1.46469 1.27833 3.071 
1.52361 1.27125 3.054 
1.76024 1.26667 3.043 
-1.38989 1.30896 3.124 
-1.32904 1.30812 3.122 
-1.26868 1.30771 3.121 
-1.19161 1.30771 3.121 
-1.14843 1.30729 3.12 
-0.951549 1.30729 3.12 
-0.908458 1.30687 3.119 
-0.845292 1.30184 3.107 
-0.799829 1.29723 3.096 
-0.759804 1.30142 3.106 
-0.690963 1.30016 3.103 
-0.632997 1.30352 3.111 
-0.562355 1.29807 3.098 
-0.443646 1.29891 3.1 
-0.384605 1.30058 3.104 
-0.314947 1.2943 3.089 
-0.272396 1.29346 3.087 
0.0834308 1.29514 3.091 
0.412829 1.29095 3.081 
0.849619 1.28676 3.071 
1.19879 1.28173 3.059 
1.41376 1.27879 3.052 
1.47347 1.27251 3.037 
1.53532 1.27544 3.044 
1.69341 1.26874 3.028 
2.09079 1.2679 3.026 
-1.42311 1.30868 3.103 
-1.34519 1.30741 3.1 
-1.30309 1.30783 3.101 
-1.25042 1.30615 3.097 
-1.15957 1.3091 3.104 
-1.03934 1.30783 3.101 
-0.914593 1.29982 3.082 
-0.875427 1.30446 3.093 
-0.831381 1.30193 3.087 
-0.788012 1.30024 3.083 
-0.738456 1.30235 3.088 
-0.687178 1.30151 3.086 
-0.629131 1.30404 3.092 
-0.558906 1.29856 3.079 
-0.432333 1.29898 3.08 
-0.373181 1.29898 3.08 
-0.288397 1.29771 3.077 
-0.238054 1.2994 3.081 
0.108168 1.29518 3.071 
0.301071 1.29139 3.062 
0.460387 1.29054 3.06 
0.910455 1.2859 3.049 
1.37212 1.27958 3.034 
1.45645 1.27325 3.019 
1.51945 1.27747 3.029 
1.60097 1.2762 3.026 
1.67564 1.26988 3.011 
1.75883 1.2703 3.012 
-1.58671 1.31167 3.09 
-1.41027 1.3053 3.075 
-1.33868 1.30955 3.085 
-1.24235 1.30615 3.077 
-1.06507 1.30615 3.077 
-1.00793 1.3087 3.083 
-0.910735 1.30276 3.069 
-0.868068 1.30191 3.067 
-0.82788 1.30488 3.074 
-0.776772 1.30403 3.072 
-0.731043 1.29766 3.057 
-0.633078 1.30318 3.07 
-0.565511 1.30276 3.069 
-0.388309 1.30148 3.066 
-0.294717 1.29681 3.055 
-0.252891 1.29724 3.056 
0.0656312 1.29554 3.052 
0.107287 1.29299 3.046 
0.165514 1.29087 3.041 
0.341059 1.29215 3.044 
0.424435 1.29172 3.043 
0.847148 1.28705 3.032 
1.11041 1.28366 3.024 
1.43321 1.27559 3.005 
1.52288 1.27474 3.003 
1.62175 1.27474 3.003 
1.75654 1.27092 2.994 
-1.45929 1.30477 3.054 
-1.36631 1.31203 3.071 
-1.32332 1.31118 3.069 
-1.14351 1.30776 3.061 
-1.04307 1.30819 3.062 
-0.966516 1.30691 3.059 
-0.905393 1.30349 3.051 
-0.847908 1.3052 3.055 
-0.762091 1.30178 3.047 
-0.704034 1.30263 3.049 
-0.60385 1.30306 3.05 
-0.494579 1.30178 3.047 
-0.452929 1.30221 3.048 
-0.360349 1.30007 3.043 
-0.275497 1.29366 3.028 
-0.216913 1.2911 3.022 
0.115075 1.29494 3.031 
0.173286 1.29494 3.031 
0.33781 1.28811 3.015 
0.396763 1.29153 3.023 
0.53687 1.28939 3.018 
1.04607 1.28426 3.006 
1.2866 1.27743 2.99 
1.44533 1.27273 2.979 
1.54444 1.27358 2.981 
1.66824 1.27444 2.983 
-1.38434 1.31358 3.055 
-1.27955 1.30928 3.045 
-1.05885 1.30498 3.035 
-0.927456 1.30756 3.041 
-0.884574 1.30584 3.037 
-0.764635 1.30025 3.024 
-0.720999 1.29638 3.015 
-0.667274 1.30455 3.034 
-0.590991 1.30154 3.027 
-0.499142 1.30025 3.024 
-0.457659 1.30025 3.024 
-0.366275 1.29982 3.023 
-0.300023 1.30025 3.024 
-0.258198 1.29853 3.02 
-0.215478 1.29079 3.002 
0.0978259 1.29509 3.012 
0.180104 1.29251 3.006 
0.220751 1.28907 2.998 
0.353061 1.29165 3.004 
0.434609 1.28907 2.998 
0.631383 1.28778 2.995 
0.867356 1.28434 2.987 
1.09278 1.27961 2.976 
1.26254 1.27789 2.972 
1.36901 1.27832 2.973 
1.45284 1.27316 2.961 
1.5346 1.27359 2.962 
1.57683 1.27488 2.965 
1.84899 1.26628 2.945 
-1.40858 1.31331 3.035 
-1.31308 1.30941 3.026 
-1.24131 1.30379 3.013 
-1.05606 1.30984 3.027 
-0.97743 1.30465 3.015 
-0.813068 1.30638 3.019 
-0.754337 1.30508 3.016 
-0.709654 1.29903 3.002 
-0.669586 1.30119 3.007 
-0.627918 1.30032 3.005 
-0.588258 1.30379 3.013 
-0.512836 1.30119 3.007 
-0.470175 1.29729 2.998 
-0.422086 1.30119 3.007 
-0.37048 1.29383 2.99 
-0.313999 1.29773 2.999 
-0.272768 1.29729 2.998 
-0.231409 1.296 2.995 
0.0805697 1.29167 2.985 
0.162738 1.29383 2.99 
0.318495 1.2934 2.989 
0.382944 1.28951 2.98 
0.465483 1.29167 2.985 
0.620045 1.28951 2.98 
0.797768 1.28604 2.972 
1.08764 1.28172 2.962 
1.19127 1.27955 2.957 
1.37134 1.2735 2.943 
1.44156 1.27133 2.938 
1.57751 1.27047 2.936 
-1.46207 1.30987 3.008 
-1.37129 1.30987 3.008 
-1.3044 1.309 3.006 
-1.20964 1.30465 2.996 
-1.03807 1.30596 2.999 
-0.971594 1.30508 2.997 
-0.849105 1.30639 3 
-0.762707 1.29942 2.984 
-0.707527 1.30334 2.993 
-0.647874 1.29899 2.983 
-0.598167 1.29768 2.98 
-0.49386 1.30291 2.992 
-0.452513 1.30204 2.99 
-0.410396 1.29855 2.982 
-0.362034 1.30117 2.988 
-0.304445 1.30029 2.986 
-0.262513 1.2955 2.975 
-0.212894 1.29159 2.966 
0.0966241 1.2955 2.975 
0.194505 1.29507 2.974 
0.340687 1.29246 2.968 
0.429535 1.29028 2.963 
0.518957 1.29028 2.963 
0.721458 1.28897 2.96 
0.810241 1.2881 2.958 
1.17515 1.27896 2.937 
1.29647 1.27939 2.938 
1.38466 1.27155 2.92 
1.48035 1.27809 2.935 
1.58657 1.27286 2.923 
1.91352 1.26633 2.908 
-1.42288 1.31243 2.995 
-1.30392 1.30849 2.986 
-1.15529 1.30717 2.983 
-1.03322 1.30805 2.985 
-0.968028 1.30849 2.986 
-0.876736 1.30673 2.982 
-0.82737 1.3063 2.981 
-0.759129 1.30148 2.97 
-0.652319 1.29972 2.966 
-0.611219 1.29885 2.964 
-0.572869 1.30411 2.976 
-0.46547 1.3006 2.968 
-0.414787 1.2949 2.955 
-0.375137 1.29797 2.962 
-0.309392 1.2949 2.955 
-0.261013 1.29622 2.958 
-0.219839 1.29271 2.95 
0.087897 1.29534 2.956 
0.144423 1.29315 2.951 
0.185218 1.29534 2.956 
0.257772 1.29315 2.951 
0.386132 1.28921 2.942 
0.507897 1.29096 2.946 
1.17155 1.28307 2.928 
1.2819 1.27299 2.905 
1.36062 1.27957 2.92 
1.43223 1.27913 2.919 
1.65364 1.27694 2.914 
-1.50014 1.30918 2.969 
-1.41528 1.31359 2.979 
-1.30727 1.31183 2.975 
-1.14948 1.30874 2.968 
-1.01105 1.30874 2.968 
-0.943995 1.3061 2.962 
-0.81397 1.3061 2.962 
-0.772293 1.30433 2.958 
-0.674906 1.30433 2.958 
-0.6339 1.30345 2.956 
-0.584249 1.30125 2.951 
-0.509822 1.29728 2.942 
-0.462333 1.29992 2.948 
-0.395875 1.29419 2.935 
-0.333036 1.30036 2.949 
-0.284491 1.30036 2.949 
-0.243375 1.29684 2.941 
0.0791391 1.29287 2.932 
0.119523 1.29463 2.936 
0.1592 1.28978 2.925 
0.208201 1.29507 2.937 
0.263796 1.2911 2.928 
0.352523 1.29243 2.931 
0.391524 1.28846 2.922 
0.512126 1.28934 2.924 
1.21225 1.28317 2.91 
1.35785 1.27743 2.897 
1.47606 1.27655 2.895 
1.77113 1.2717 2.884 
-1.48445 1.31067 2.954 
-1.15099 1.30934 2.951 
-0.930497 1.30668 2.945 
-0.822375 1.3018 2.934 
-0.768638 1.30624 2.944 
-0.726026 1.30224 2.935 
-0.662733 1.30446 2.94 
-0.573029 1.30224 2.935 
-0.499022 1.29825 2.926 
-0.443282 1.29958 2.929 
-0.401725 1.29514 2.919 
-0.362798 1.29914 2.928 
-0.314598 1.29914 2.928 
-0.242464 1.30002 2.93 
0.0866778 1.29337 2.915 
0.126318 1.28982 2.907 
0.166539 1.29248 2.913 
0.222713 1.29381 2.916 
0.277568 1.28849 2.904 
0.342718 1.29381 2.916 
0.39005 1.29159 2.911 
0.492519 1.28805 2.903 
0.691159 1.28716 2.901 
0.9452 1.28627 2.899 
1.10916 1.28272 2.891 
1.27922 1.27828 2.881 
1.37766 1.27429 2.872 
1.53204 1.27163 2.866 
1.67183 1.2703 2.863 
1.83212 1.27252 2.868 
-1.38203 1.31387 2.943 
-1.27186 1.30851 2.931 
-1.02083 1.30628 2.926 
-0.905644 1.30226 2.917 
-0.847583 1.29913 2.91 
-0.808497 1.30047 2.913 
-0.737832 1.30271 2.918 
-0.698042 1.30315 2.919 
-0.609948 1.30315 2.919 
-0.570491 1.30449 2.922 
-0.496975 1.30092 2.914 
-0.432422 1.29913 2.91 
-0.393312 1.30181 2.916 
-0.351978 1.2969 2.905 
-0.312664 1.29913 2.91 
-0.264215 1.29646 2.904 
0.0700522 1.28976 2.889 
0.109949 1.29288 2.896 
0.14947 1.2911 2.892 
0.189469 1.29333 2.897 
0.236831 1.29155 2.893 
0.300329 1.29155 2.893 
0.363827 1.29155 2.893 
0.419822 1.29288 2.896 
0.475276 1.29244 2.895 
0.569997 1.2911 2.892 
0.663601 1.28797 2.885 
0.701959 1.28574 2.88 
0.789698 1.28708 2.883 
0.946907 1.28574 2.88 
1.11014 1.28262 2.873 
1.21345 1.28351 2.875 
1.25071 1.28128 2.87 
1.34742 1.27592 2.858 
1.41113 1.27681 2.86 
1.51684 1.27994 2.867 
1.61562 1.27101 2.847 
1.79842 1.27324 2.852 
-1.30759 1.31206 2.921 
-1.21818 1.31071 2.918 
-1.01629 1.30847 2.913 
-0.909262 1.30397 2.903 
-0.871834 1.30757 2.911 
-0.805166 1.30308 2.901 
-0.725824 1.30353 2.902 
-0.678754 1.30487 2.905 
-0.621462 1.30173 2.898 
-0.573756 1.30173 2.898 
-0.523691 1.29589 2.885 
-0.461166 1.29814 2.89 
-0.406084 1.29948 2.893 
-0.366272 1.29903 2.892 
-0.326486 1.29858 2.891 
-0.286232 1.29589 2.885 
-0.214846 1.29499 2.883 
0.0937335 1.29634 2.886 
0.140508 1.2896 2.871 
0.180393 1.29319 2.879 
0.220116 1.29454 2.882 
0.25803 1.28646 2.864 
0.298045 1.2896 2.871 
0.370093 1.29364 2.88 
0.432102 1.29005 2.872 
0.66593 1.28511 2.861 
0.707642 1.2896 2.871 
0.77772 1.28825 2.868 
0.887572 1.2878 2.867 
1.12668 1.28241 2.855 
1.22593 1.27972 2.849 
1.30043 1.27613 2.841 
1.46669 1.27837 2.846 
1.58156 1.27029 2.828 
-1.3609 1.30968 2.898 
-1.19815 1.30561 2.889 
-1.03205 1.30606 2.89 
-0.946797 1.30878 2.896 
-0.842923 1.30787 2.894 
-0.765865 1.29838 2.873 
-0.687281 1.29883 2.874 
-0.624417 1.29929 2.875 
-0.569598 1.30019 2.877 
-0.528658 1.29657 2.869 
-0.45973 1.302 2.881 
-0.395532 1.29883 2.874 
-0.31569 1.29477 2.865 
-0.275809 1.29205 2.859 
-0.214101 1.29838 2.873 
0.0932139 1.29703 2.87 
0.139578 1.28889 2.852 
0.179015 1.29115 2.857 
0.217901 1.28934 2.853 
0.264774 1.28889 2.852 
0.312378 1.2916 2.858 
0.375107 1.2916 2.858 
0.420825 1.28754 2.849 
0.499341 1.28844 2.851 
0.660111 1.28166 2.836 
0.718608 1.28889 2.852 
0.817741 1.28482 2.843 
0.917849 1.28302 2.839 
1.23676 1.28256 2.838 
1.28763 1.27895 2.83 
1.42285 1.27488 2.821 
1.66632 1.27759 2.827 
-1.18239 1.3049 2.87 
-1.0292 1.31036 2.882 
-0.898926 1.3049 2.87 
-0.845865 1.30808 2.877 
-0.777005 1.29853 2.856 
-0.738343 1.29944 2.858 
-0.676795 1.30172 2.863 
-0.605043 1.29944 2.858 
-0.5578 1.29899 2.857 
-0.509876 1.29672 2.852 
-0.433444 1.30217 2.864 
-0.385759 1.30035 2.86 
-0.30611 1.29535 2.849 
-0.252365 1.30035 2.86 
-0.212536 1.29672 2.852 
0.0922395 1.29126 2.84 
0.131199 1.29126 2.84 
0.178388 1.29444 2.847 
0.216679 1.2899 2.837 
0.254967 1.28671 2.83 
0.301233 1.28535 2.827 
0.364439 1.28944 2.836 
0.418314 1.28762 2.832 
0.496888 1.2899 2.837 
0.656852 1.28308 2.822 
0.722358 1.28944 2.836 
0.798755 1.28717 2.831 
1.06153 1.27626 2.807 
1.23271 1.27807 2.811 
1.38548 1.27671 2.808 
1.50283 1.27171 2.797 
-1.31721 1.30591 2.855 
-1.1155 1.3082 2.86 
-1.04013 1.30225 2.847 
-0.962359 1.30271 2.848 
-0.890156 1.29997 2.842 
-0.787681 1.29814 2.838 
-0.73421 1.29997 2.842 
-0.674195 1.30454 2.852 
-0.617467 1.30042 2.843 
-0.580095 1.30408 2.851 
-0.537949 1.29676 2.835 
-0.500467 1.30042 2.843 
-0.429509 1.29814 2.838 
-0.382926 1.29859 2.839 
-0.336074 1.29814 2.838 
-0.280478 1.29311 2.827 
-0.234437 1.29585 2.833 
0.0684519 1.29128 2.823 
0.114841 1.29036 2.821 
0.184499 1.29036 2.821 
0.223434 1.29173 2.824 
0.261431 1.28807 2.816 
0.309427 1.29493 2.831 
0.378125 1.29082 2.822 
0.422473 1.28441 2.808 
0.471535 1.29219 2.825 
0.601588 1.28853 2.817 
0.639777 1.28762 2.815 
0.678152 1.28716 2.814 
0.746573 1.28533 2.81 
0.793113 1.28579 2.811 
0.977511 1.28487 2.809 
1.07079 1.27664 2.791 
1.24281 1.2803 2.799 
1.366 1.27344 2.784 
1.45054 1.27389 2.785 
-1.23844 1.31329 2.854 
-1.0539 1.30776 2.842 
-0.983377 1.3073 2.841 
-0.91194 1.30546 2.837 
-0.871792 1.30362 2.833 
-0.775772 1.29902 2.823 
-0.668994 1.30224 2.83 
-0.621529 1.3004 2.826 
-0.580906 1.29626 2.817 
-0.519629 1.29764 2.82 
-0.474214 1.3004 2.826 
-0.41786 1.29396 2.812 
-0.372891 1.29856 2.822 
-0.30985 1.29396 2.812 
-0.263278 1.29258 2.809 
-0.225305 1.2958 2.816 
0.106874 1.29534 2.815 
0.160765 1.29396 2.812 
0.206171 1.28844 2.8 
0.251813 1.28614 2.795 
0.298569 1.28936 2.802 
0.383543 1.29074 2.805 
0.435386 1.28476 2.792 
0.553047 1.2912 2.806 
0.604125 1.28522 2.793 
0.666381 1.28706 2.797 
0.720098 1.28706 2.797 
0.759823 1.28936 2.802 
0.826644 1.28568 2.794 
0.932626 1.28384 2.79 
1.06581 1.27831 2.778 
1.40116 1.27831 2.778 
1.59011 1.27095 2.762 
-1.27777 1.31325 2.837 
-1.1687 1.30445 2.818 
-1.05896 1.3026 2.814 
-0.95256 1.30491 2.819 
-0.914213 1.30538 2.82 
-0.862189 1.30862 2.827 
-0.709007 1.29797 2.804 
-0.650002 1.30306 2.815 
-0.586545 1.29936 2.807 
-0.517233 1.29936 2.807 
-0.454324 1.29566 2.799 
-0.400283 1.29473 2.797 
-0.353987 1.2938 2.795 
-0.294106 1.30029 2.809 
0.106305 1.29612 2.8 
0.151689 1.2901 2.787 
0.205214 1.2901 2.787 
0.258925 1.29103 2.789 
0.336165 1.2938 2.795 
0.396517 1.29056 2.788 
0.488657 1.29149 2.79 
0.60326 1.29103 2.789 
0.670199 1.28732 2.781 
0.724129 1.28825 2.783 
0.789144 1.28223 2.77 
0.893924 1.27992 2.765 
0.950452 1.28455 2.775 
1.04678 1.28131 2.768 
1.18677 1.27668 2.758 
1.28886 1.28038 2.766 
1.62506 1.27621 2.757 
-1.18724 1.30706 2.807 
-0.983846 1.30287 2.798 
-0.931772 1.3052 2.803 
-0.886894 1.30706 2.807 
-0.815544 1.3038 2.8 
-0.689415 1.29775 2.787 
-0.61559 1.30334 2.799 
-0.543743 1.29682 2.785 
-0.50572 1.29728 2.786 
-0.421034 1.29542 2.782 
-0.360102 1.29589 2.783 
-0.306434 1.29495 2.781 
0.0901609 1.29263 2.776 
0.128473 1.29495 2.781 
0.166443 1.29356 2.778 
0.204552 1.29356 2.778 
0.241437 1.28704 2.764 
0.287041 1.2875 2.765 
0.340881 1.2903 2.771 
0.393672 1.2889 2.768 
0.453934 1.2875 2.765 
0.499631 1.28797 2.766 
0.584372 1.29076 2.772 
0.719706 1.28797 2.766 
0.81836 1.28797 2.766 
0.888105 1.27912 2.747 
1.00979 1.28052 2.75 
1.09517 1.28331 2.756 
1.19754 1.27959 2.748 
1.30025 1.27679 2.742 
1.75099 1.27633 2.741 
-1.04078 1.30493 2.786 
-0.878364 1.30212 2.78 
-0.824083 1.30071 2.777 
-0.656938 1.30165 2.779 
-0.605088 1.30493 2.786 
-0.526184 1.29884 2.773 
-0.4892 1.30165 2.779 
-0.388398 1.29603 2.767 
-0.351707 1.30071 2.777 
-0.306213 1.30165 2.779 
0.0971079 1.29134 2.757 
0.135271 1.29462 2.764 
0.172937 1.29275 2.76 
0.210722 1.29228 2.759 
0.24866 1.29275 2.76 
0.28621 1.29134 2.757 
0.352745 1.28572 2.745 
0.413596 1.2876 2.749 
0.459016 1.28806 2.75 
0.497283 1.28947 2.753 
0.543587 1.29181 2.758 
0.601274 1.28572 2.745 
0.720721 1.28385 2.741 
0.791854 1.28947 2.753 
0.835044 1.28619 2.746 
0.88121 1.2876 2.749 
0.932646 1.28572 2.745 
1.08722 1.28151 2.736 
1.35798 1.27495 2.722 
1.47421 1.27214 2.716 
-1.1128 1.30739 2.775 
-1.0618 1.31021 2.781 
-0.831402 1.30786 2.776 
-0.590153 1.29655 2.752 
-0.539838 1.30268 2.765 
-0.486208 1.30126 2.762 
-0.385591 1.2942 2.747 
-0.348667 1.29702 2.753 
-0.295581 1.29608 2.751 
-0.257936 1.29655 2.752 
0.0890891 1.29231 2.743 
0.126625 1.29137 2.741 
0.163927 1.28901 2.736 
0.20249 1.29561 2.75 
0.238904 1.28854 2.735 
0.276625 1.28948 2.737 
0.313827 1.28807 2.734 
0.375749 1.29467 2.748 
0.411941 1.28996 2.738 
0.449665 1.29043 2.739 
0.487417 1.2909 2.74 
0.554466 1.28948 2.737 
0.590931 1.28713 2.732 
0.703363 1.28713 2.732 
0.742739 1.29043 2.739 
0.797581 1.28195 2.721 
0.89463 1.28195 2.721 
0.971064 1.2843 2.726 
1.08206 1.28289 2.723 
1.2274 1.27865 2.714 
1.43907 1.28147 2.72 
-1.09085 1.30694 2.758 
-0.939514 1.30694 2.758 
-0.753788 1.29984 2.743 
-0.648192 1.29936 2.742 
-0.549189 1.29652 2.736 
-0.482511 1.29889 2.741 
-0.361791 1.29747 2.738 
-0.323995 1.29652 2.736 
-0.279873 1.30078 2.745 
0.0738488 1.29652 2.736 
0.111015 1.29225 2.727 
0.156077 1.29368 2.73 
0.223897 1.29605 2.735 
0.259982 1.28894 2.72 
0.297404 1.28941 2.721 
0.358045 1.29273 2.728 
0.393438 1.28609 2.714 
0.43051 1.28562 2.713 
0.468072 1.28657 2.715 
0.520022 1.28609 2.714 
0.558485 1.28894 2.72 
0.596236 1.28989 2.722 
0.683837 1.28609 2.714 
0.788664 1.28704 2.716 
0.842373 1.28941 2.721 
1.01779 1.28467 2.711 
1.12602 1.28088 2.703 
1.21926 1.27756 2.696 
1.34356 1.28325 2.708 
1.74533 1.27283 2.686 
-1.06505 1.3107 2.75 
-0.966265 1.30975 2.748 
-0.826022 1.3026 2.733 
-0.696507 1.29878 2.725 
-0.561934 1.29878 2.725 
-0.524167 1.29783 2.723 
-0.412559 1.29926 2.726 
-0.352856 1.29974 2.727 
-0.278446 1.30164 2.731 
0.0656633 1.29068 2.708 
0.103191 1.29545 2.718 
0.147335 1.2902 2.707 
0.184265 1.28877 2.704 
0.289619 1.29545 2.718 
0.32498 1.28782 2.702 
0.370416 1.29116 2.709 
0.406826 1.28877 2.704 
0.444412 1.2902 2.707 
0.481902 1.29116 2.709 
0.534717 1.29306 2.713 
0.576602 1.28687 2.7 
0.621738 1.2883 2.703 
0.659792 1.2902 2.707 
0.724756 1.28687 2.7 
0.80415 1.28353 2.693 
0.88097 1.28782 2.702 
0.96921 1.28687 2.7 
1.04641 1.28163 2.689 
1.18173 1.27638 2.678 
1.28699 1.27877 2.683 
1.43674 1.27448 2.674 
-1.0546 1.3053 2.723 
-0.835172 1.30099 2.714 
-0.625757 1.29907 2.71 
-0.544773 1.30099 2.714 
-0.477054 1.29907 2.71 
-0.350398 1.29811 2.708 
0.0725802 1.289 2.689 
0.124685 1.2938 2.699 
0.16183 1.29475 2.701 
0.206445 1.29571 2.703 
0.264789 1.29092 2.693 
0.302292 1.29332 2.698 
0.338171 1.289 2.689 
0.397192 1.289 2.689 
0.435855 1.29428 2.7 
0.472193 1.29236 2.696 
0.51619 1.2914 2.694 
0.560122 1.29044 2.692 
0.601517 1.28421 2.679 
0.64851 1.28996 2.691 
0.689203 1.28325 2.677 
0.728367 1.28756 2.686 
0.771145 1.28517 2.681 
0.828441 1.28277 2.676 
0.897527 1.28709 2.685 
0.977101 1.28517 2.681 
1.05026 1.28469 2.68 
1.1317 1.27702 2.664 
1.29786 1.2751 2.66 
1.52696 1.2775 2.665 
-0.907287 1.30506 2.707 
-0.697008 1.30072 2.698 
-0.591618 1.29686 2.69 
-0.422185 1.29783 2.692 
0.0946423 1.29542 2.687 
0.138409 1.29108 2.678 
0.212279 1.29349 2.683 
0.263413 1.29156 2.679 
0.301172 1.2959 2.688 
0.336914 1.29156 2.679 
0.395271 1.29011 2.676 
0.455194 1.29349 2.683 
0.541298 1.28818 2.672 
0.576655 1.28529 2.666 
0.644413 1.28915 2.674 
0.687659 1.2877 2.671 
0.723215 1.28577 2.667 
0.760086 1.28626 2.668 
0.795491 1.28433 2.664 
0.860301 1.28288 2.661 
0.957364 1.28577 2.667 
1.00707 1.28385 2.663 
1.11144 1.28626 2.668 
1.16956 1.28577 2.667 
1.29688 1.28143 2.658 
1.4909 1.27276 2.64 
-0.989416 1.30327 2.688 
-0.64328 1.30424 2.69 
-0.500249 1.29697 2.675 
-0.294313 1.29503 2.671 
-0.191504 1.29358 2.668 
0.123022 1.29115 2.663 
0.188636 1.29018 2.661 
0.247784 1.29406 2.669 
0.283971 1.29212 2.665 
0.32065 1.29261 2.666 
0.385755 1.29018 2.661 
0.429559 1.29018 2.661 
0.515224 1.28533 2.651 
0.559286 1.2863 2.653 
0.619145 1.2897 2.66 
0.662434 1.28873 2.658 
0.706189 1.28873 2.658 
0.740416 1.28485 2.65 
0.797074 1.28242 2.645 
0.863363 1.28388 2.648 
0.938842 1.28776 2.656 
0.979234 1.28339 2.647 
1.09502 1.28291 2.646 
1.25093 1.27903 2.638 
-1.06417 1.30285 2.672 
-0.866557 1.30333 2.673 
-0.621743 1.29748 2.661 
-0.463554 1.30431 2.675 
-0.417323 1.29748 2.661 
-0.322414 1.29748 2.661 
-0.20483 1.29261 2.651 
0.0790359 1.29602 2.658 
0.122606 1.29407 2.654 
0.16642 1.29504 2.656 
0.209114 1.28871 2.643 
0.282906 1.29456 2.655 
0.325996 1.29212 2.65 
0.361255 1.28822 2.642 
0.397046 1.28676 2.639 
0.448238 1.28822 2.642 
0.526573 1.28481 2.635 
0.562507 1.28432 2.634 
0.614257 1.28676 2.639 
0.651938 1.28968 2.645 
0.702735 1.28968 2.645 
0.74543 1.28822 2.642 
0.830207 1.28481 2.635 
0.890064 1.28773 2.641 
0.94949 1.27993 2.625 
1.01972 1.28676 2.639 
1.13631 1.27944 2.624 
1.25582 1.27652 2.618 
1.37792 1.27652 2.618 
-0.871275 1.30674 2.665 
-0.597587 1.29988 2.651 
-0.43807 1.30135 2.654 
-0.400149 1.29645 2.644 
-0.349106 1.29547 2.642 
0.0566854 1.29252 2.636 
0.0926699 1.29007 2.631 
0.128762 1.29007 2.631 
0.165355 1.294 2.639 
0.20171 1.29498 2.641 
0.273026 1.28958 2.63 
0.317763 1.29547 2.642 
0.3528 1.29105 2.633 
0.403674 1.29203 2.635 
0.444845 1.28566 2.622 
0.496523 1.28909 2.629 
0.533398 1.29105 2.633 
0.587821 1.2837 2.618 
0.633327 1.2886 2.628 
0.667086 1.28419 2.619 
0.741762 1.28909 2.629 
0.854234 1.28468 2.62 
1.02401 1.28125 2.613 
1.07912 1.28713 2.625 
1.1858 1.28566 2.622 
1.29891 1.2837 2.618 
1.40736 1.27781 2.606 
-0.610055 1.30272 2.642 
-0.514457 1.29926 2.635 
-0.434109 1.2968 2.63 
-0.399241 1.30074 2.638 
-0.355411 1.29926 2.635 
-0.202744 1.29384 2.624 
0.0850617 1.29137 2.619 
0.121128 1.29285 2.622 
0.157216 1.29384 2.624 
0.193654 1.2968 2.63 
0.257612 1.29187 2.62 
0.3162 1.29631 2.629 
0.378652 1.28792 2.612 
0.435815 1.28743 2.611 
0.492179 1.28496 2.606 
0.528333 1.28595 2.608 
0.593413 1.28743 2.611 
0.664539 1.28644 2.609 
0.726446 1.28201 2.6 
0.81517 1.28694 2.61 
0.886098 1.28595 2.608 
1.07172 1.28546 2.607 
1.24286 1.27757 2.591 
1.33991 1.28201 2.6 
1.4451 1.27412 2.584 
-0.597559 1.29856 2.619 
-0.512505 1.30154 2.625 
-0.47468 1.29658 2.615 
-0.395911 1.29707 2.616 
-0.352443 1.29559 2.613 
-0.245377 1.29806 2.618 
0.0775492 1.29311 2.608 
0.127587 1.29261 2.607 
0.163789 1.29608 2.614 
0.206978 1.29707 2.616 
0.270119 1.29013 2.602 
0.342427 1.2936 2.609 
0.377202 1.29013 2.602 
0.427338 1.29063 2.603 
0.475312 1.28517 2.592 
0.527725 1.29162 2.605 
0.561514 1.28716 2.596 
0.661737 1.28815 2.598 
0.731887 1.28616 2.594 
0.79996 1.28121 2.584 
0.851888 1.28468 2.591 
0.91016 1.28666 2.595 
1.02603 1.28021 2.582 
1.22059 1.27625 2.574 
1.31851 1.2822 2.586 
-0.586767 1.29777 2.603 
-0.393339 1.29577 2.599 
-0.323148 1.30026 2.608 
0.0628263 1.29179 2.591 
0.119927 1.29428 2.596 
0.155239 1.29179 2.591 
0.190782 1.29179 2.591 
0.241286 1.29577 2.599 
0.282211 1.2873 2.582 
0.341114 1.29577 2.599 
0.388772 1.2883 2.584 
0.467297 1.28979 2.587 
0.53869 1.29079 2.589 
0.578615 1.28481 2.577 
0.638874 1.29228 2.592 
0.740368 1.28331 2.574 
0.815084 1.28979 2.587 
0.882293 1.28431 2.576 
0.931404 1.28381 2.575 
1.02364 1.28431 2.576 
1.11162 1.27982 2.567 
1.22765 1.28331 2.574 
1.3474 1.27633 2.56 
-0.985937 1.30391 2.601 
-0.448651 1.29789 2.589 
-0.372233 1.30391 2.601 
-0.29272 1.2994 2.592 
0.0624384 1.29087 2.575 
0.140314 1.29238 2.578 
0.17636 1.29739 2.588 
0.231632 1.28887 2.571 
0.267836 1.29338 2.58 
0.302993 1.29238 2.578 
0.338752 1.29388 2.581 
0.416806 1.29438 2.582 
0.493197 1.29037 2.574 
0.562065 1.28636 2.566 
0.598197 1.28837 2.57 
0.661398 1.28787 2.569 
0.70314 1.28686 2.567 
0.785506 1.28335 2.56 
0.852034 1.28837 2.57 
0.888773 1.28035 2.554 
0.97362 1.28135 2.556 
1.09899 1.28035 2.554 
1.19055 1.28085 2.555 
1.26064 1.28085 2.555 
-0.77978 1.30046 2.58 
-0.459818 1.29643 2.572 
-0.326124 1.29794 2.575 
-0.24899 1.30096 2.581 
0.111414 1.29239 2.564 
0.168148 1.29592 2.571 
0.209652 1.29088 2.561 
0.258938 1.29139 2.562 
0.295002 1.29542 2.57 
0.343689 1.2929 2.565 
0.392337 1.29088 2.561 
0.467794 1.28584 2.551 
0.503577 1.28786 2.555 
0.588155 1.28887 2.557 
0.666886 1.29189 2.563 
0.700675 1.28937 2.558 
0.732027 1.28282 2.545 
0.806577 1.29038 2.56 
0.896832 1.28887 2.557 
0.997752 1.28332 2.546 
1.16824 1.27878 2.537 
-0.866397 1.31007 2.585 
-0.394152 1.29639 2.558 
-0.24735 1.29943 2.564 
0.0827882 1.29183 2.549 
0.138899 1.29335 2.552 
0.208506 1.29081 2.547 
0.250237 1.2898 2.545 
0.306578 1.29183 2.549 
0.368939 1.2898 2.545 
0.417324 1.28828 2.542 
0.46651 1.28929 2.544 
0.517191 1.29385 2.553 
0.586315 1.29183 2.549 
0.618114 1.28524 2.536 
0.695745 1.28727 2.54 
0.771184 1.28524 2.536 
0.867223 1.28321 2.532 
0.996844 1.28017 2.526 
1.11554 1.28118 2.528 
1.2236 1.27814 2.522 
-0.863352 1.30188 2.555 
-0.322957 1.29933 2.55 
0.0755866 1.29525 2.542 
0.145272 1.29474 2.541 
0.21431 1.29067 2.533 
0.276309 1.28812 2.528 
0.31148 1.29016 2.532 
0.347308 1.29423 2.54 
0.408251 1.28863 2.529 
0.451305 1.29271 2.537 
0.505191 1.28812 2.528 
0.560677 1.28812 2.528 
0.60253 1.28863 2.529 
0.642633 1.28557 2.523 
0.705771 1.2871 2.526 
0.747057 1.28659 2.525 
0.814069 1.28302 2.518 
0.864141 1.28557 2.523 
0.934471 1.2871 2.526 
1.0079 1.28353 2.519 
1.18571 1.2815 2.515 
1.26498 1.27793 2.508 
-0.557528 1.29864 2.535 
-0.383653 1.29864 2.535 
-0.320424 1.29608 2.53 
-0.244166 1.29659 2.531 
0.0751703 1.29506 2.528 
0.130657 1.29506 2.528 
0.179208 1.29506 2.528 
0.212871 1.28891 2.516 
0.288574 1.28788 2.514 
0.350511 1.28737 2.513 
0.399567 1.28993 2.518 
0.449882 1.29557 2.529 
0.481701 1.28788 2.514 
0.546157 1.29352 2.525 
0.59465 1.29352 2.525 
0.626048 1.28686 2.512 
0.687801 1.28635 2.511 
0.727975 1.2843 2.507 
0.804917 1.28635 2.511 
0.888648 1.28788 2.514 
1.0408 1.2884 2.515 
-0.561143 1.29787 2.52 
-0.451773 1.30148 2.527 
-0.3464 1.29633 2.517 
-0.23591 1.29633 2.517 
0.0817489 1.29633 2.517 
0.122791 1.29221 2.509 
0.164944 1.2989 2.522 
0.218901 1.29066 2.506 
0.302489 1.2953 2.515 
0.356268 1.29015 2.505 
0.410264 1.28706 2.499 
0.467162 1.29272 2.51 
0.52935 1.29324 2.511 
0.59443 1.28499 2.495 
0.632436 1.29272 2.51 
0.670802 1.28706 2.499 
0.719946 1.28912 2.503 
0.805987 1.28396 2.493 
0.868937 1.28603 2.497 
0.96562 1.28706 2.499 
1.11556 1.28603 2.497 
-0.497334 1.30064 2.512 
-0.283346 1.29909 2.509 
0.0674788 1.29443 2.5 
0.108937 1.29805 2.507 
0.156834 1.29598 2.503 
0.259115 1.29236 2.496 
0.313522 1.2908 2.493 
0.354703 1.29132 2.494 
0.429626 1.29029 2.492 
0.483545 1.28822 2.488 
0.545637 1.28977 2.491 
0.599106 1.28718 2.486 
0.652619 1.28511 2.482 
0.754459 1.28459 2.481 
0.864413 1.28614 2.484 
1.10294 1.28614 2.484 
1.29691 1.28252 2.477 
0.0672358 1.2966 2.491 
0.19598 1.28932 2.477 
0.265644 1.29764 2.493 
0.326808 1.29608 2.49 
0.365582 1.28828 2.475 
0.44081 1.28984 2.478 
0.509617 1.29192 2.482 
0.591809 1.29296 2.484 
0.656241 1.28567 2.47 
0.745242 1.28723 2.473 
0.906978 1.28567 2.47 
1.05056 1.28723 2.473 
0.066669 1.29245 2.47 
0.107155 1.29036 2.466 
0.229217 1.29193 2.469 
