1.18861 1.28686 2.78 
1.2693 1.28362 2.773 
1.43113 1.28547 2.777 
1.82569 1.27899 2.763 
-1.066 1.30008 2.792 
-0.989042 1.29961 2.791 
-0.88631 1.29495 2.781 
-0.822638 1.30287 2.798 
-0.776024 1.30194 2.796 
-0.689415 1.29775 2.787 
-0.65095 1.29728 2.786 
-0.61515 1.3024 2.797 
-0.542962 1.29495 2.781 
-0.499685 1.30147 2.795 
-0.42164 1.29728 2.786 
-0.375778 1.29728 2.786 
-0.321809 1.29542 2.782 
-0.253115 1.29542 2.782 
-0.207394 1.29589 2.783 
0.0974953 1.2889 2.768 
0.135614 1.2903 2.771 
0.17419 1.29449 2.78 
0.234362 1.28983 2.77 
0.279657 1.28843 2.767 
0.342111 1.29495 2.781 
0.393103 1.28704 2.764 
0.446025 1.28657 2.763 
0.530752 1.28983 2.77 
0.585426 1.29309 2.777 
0.653526 1.29216 2.775 
0.698451 1.29076 2.772 
0.79847 1.29263 2.776 
0.848408 1.2875 2.765 
0.886338 1.2875 2.765 
0.993261 1.28843 2.767 
1.05133 1.28518 2.76 
1.12069 1.28657 2.763 
1.20684 1.28145 2.752 
1.27711 1.28378 2.757 
1.44142 1.28192 2.753 
-1.18937 1.30024 2.776 
-1.05989 1.30024 2.776 
-0.884716 1.30024 2.776 
-0.783441 1.29649 2.768 
-0.69331 1.29837 2.772 
-0.609432 1.2979 2.771 
-0.555412 1.29603 2.767 
-0.456392 1.29509 2.765 
-0.396991 1.29931 2.774 
-0.328732 1.30024 2.776 
-0.281403 1.29275 2.76 
0.0745505 1.29368 2.762 
0.158078 1.29509 2.765 
0.203815 1.29649 2.768 
0.255954 1.29134 2.757 
0.301666 1.29275 2.76 
0.376296 1.289 2.752 
0.415402 1.29322 2.761 
0.466222 1.28713 2.748 
0.512761 1.29041 2.755 
0.572398 1.28853 2.751 
0.627731 1.29368 2.762 
0.670517 1.28853 2.751 
0.707998 1.28806 2.75 
0.828716 1.28806 2.75 
0.86392 1.28432 2.742 
0.91403 1.29134 2.757 
0.995065 1.28853 2.751 
1.09713 1.28432 2.742 
1.15563 1.28244 2.738 
1.28239 1.28151 2.736 
1.41155 1.28291 2.739 
-1.22435 1.30456 2.769 
-0.988129 1.30362 2.767 
-0.863219 1.29844 2.756 
-0.786748 1.29702 2.753 
-0.720598 1.30032 2.76 
-0.681499 1.29796 2.755 
-0.643706 1.29796 2.755 
-0.592512 1.30173 2.763 
-0.536324 1.2942 2.747 
-0.493607 1.30079 2.761 
-0.446696 1.29655 2.752 
-0.348414 1.29608 2.751 
-0.26539 1.29608 2.751 
0.0741457 1.2942 2.747 
0.149784 1.29655 2.752 
0.187127 1.29372 2.746 
0.238904 1.28854 2.735 
0.292283 1.29231 2.743 
0.345969 1.29608 2.751 
0.403986 1.28854 2.735 
0.45718 1.29043 2.739 
0.496018 1.29372 2.746 
0.547956 1.29184 2.742 
0.599741 1.28996 2.738 
0.646696 1.29372 2.746 
0.691144 1.29231 2.743 
0.773362 1.29137 2.741 
0.889121 1.28477 2.727 
0.945291 1.28996 2.738 
1.06198 1.28572 2.729 
1.14887 1.28242 2.722 
1.24687 1.28336 2.724 
1.6325 1.281 2.719 
-1.07455 1.30552 2.755 
-0.936789 1.30315 2.75 
-0.884618 1.3041 2.752 
-0.83535 1.29794 2.739 
-0.798068 1.29842 2.74 
-0.748167 1.30315 2.75 
-0.676552 1.29605 2.735 
-0.623341 1.29462 2.732 
-0.578792 1.29557 2.734 
-0.53281 1.2932 2.729 
-0.490746 1.30078 2.745 
-0.453256 1.30126 2.746 
-0.39141 1.29605 2.735 
-0.340123 1.30078 2.745 
-0.277936 1.29178 2.726 
0.0585993 1.29131 2.725 
0.0958399 1.28941 2.721 
0.15602 1.2932 2.729 
0.193882 1.29605 2.735 
0.231316 1.29557 2.734 
0.267542 1.28941 2.721 
0.30655 1.29652 2.736 
0.364458 1.28894 2.72 
0.433684 1.2951 2.733 
0.468589 1.28799 2.718 
0.512954 1.28704 2.716 
0.558485 1.28894 2.72 
0.597331 1.29225 2.727 
0.635671 1.29415 2.731 
0.669684 1.28752 2.717 
0.738672 1.29083 2.724 
0.804158 1.28799 2.718 
0.87679 1.28515 2.712 
0.948279 1.29131 2.725 
1.08833 1.28894 2.72 
1.22379 1.2823 2.706 
1.33165 1.28609 2.714 
1.40559 1.28562 2.713 
1.66427 1.2842 2.71 
-0.91265 1.29783 2.723 
-0.845723 1.29831 2.724 
-0.802058 1.30021 2.728 
-0.735235 1.30117 2.73 
-0.650215 1.29592 2.719 
-0.597996 1.29592 2.719 
-0.562346 1.29974 2.727 
-0.523397 1.29592 2.719 
-0.487886 1.30069 2.729 
-0.441664 1.29688 2.721 
-0.403891 1.29545 2.718 
-0.367415 1.29831 2.724 
-0.307288 1.29688 2.721 
0.0582982 1.29211 2.711 
0.103267 1.2964 2.72 
0.139753 1.28877 2.704 
0.18556 1.29783 2.723 
0.23672 1.29163 2.71 
0.28185 1.29402 2.715 
0.319212 1.29449 2.716 
0.371373 1.29449 2.716 
0.430669 1.29354 2.714 
0.474645 1.29163 2.71 
0.524553 1.28639 2.699 
0.562202 1.28782 2.702 
0.600377 1.2902 2.707 
0.676142 1.29306 2.713 
0.731621 1.28591 2.698 
0.770057 1.2883 2.703 
0.816963 1.29211 2.711 
0.864541 1.28544 2.697 
0.926134 1.28877 2.704 
0.974086 1.28353 2.693 
1.09969 1.28353 2.693 
1.17532 1.28544 2.697 
1.33219 1.28687 2.7 
1.5708 1.2821 2.69 
-0.928881 1.29667 2.705 
-0.795883 1.29763 2.707 
-0.735108 1.29523 2.702 
-0.619234 1.30099 2.714 
-0.573076 1.29763 2.707 
-0.530271 1.30195 2.716 
-0.491924 1.29907 2.71 
-0.42391 1.29571 2.703 
-0.38683 1.29571 2.703 
-0.320324 1.29667 2.705 
-0.28217 1.29188 2.695 
-0.239482 1.30099 2.714 
0.0801956 1.29284 2.697 
0.124361 1.29044 2.692 
0.16171 1.2938 2.699 
0.228439 1.29428 2.7 
0.272178 1.29092 2.693 
0.317097 1.29332 2.698 
0.353976 1.29284 2.697 
0.414398 1.29667 2.705 
0.458248 1.29475 2.701 
0.536765 1.28756 2.686 
0.617598 1.28709 2.685 
0.70994 1.29428 2.7 
0.753548 1.29284 2.697 
0.833395 1.29044 2.692 
0.87934 1.29284 2.697 
0.98666 1.28804 2.687 
1.0239 1.28852 2.688 
1.26585 1.28709 2.685 
1.54291 1.28469 2.68 
-1.00977 1.30313 2.703 
-0.89986 1.30506 2.707 
-0.777279 1.29879 2.694 
-0.667152 1.30024 2.697 
-0.60728 1.29879 2.694 
-0.556572 1.3012 2.699 
-0.496595 1.29927 2.695 
-0.428932 1.2959 2.688 
-0.369934 1.2959 2.688 
-0.325201 1.29397 2.684 
-0.27396 1.29542 2.687 
-0.214824 1.29445 2.685 
0.109061 1.29156 2.679 
0.212279 1.29349 2.683 
0.257305 1.29783 2.692 
0.294125 1.29734 2.691 
0.336914 1.29156 2.679 
0.373246 1.29011 2.676 
0.418389 1.29349 2.683 
0.462727 1.29397 2.684 
0.571049 1.28915 2.674 
0.672499 1.28674 2.669 
0.709909 1.28818 2.672 
0.76265 1.29059 2.677 
0.811325 1.28626 2.668 
0.867414 1.29349 2.683 
0.960595 1.29011 2.676 
1.09927 1.28915 2.674 
1.25973 1.28818 2.672 
1.43298 1.28577 2.667 
-1.08032 1.30618 2.694 
-0.904577 1.29794 2.677 
-0.795001 1.29891 2.679 
-0.721231 1.29842 2.678 
-0.558544 1.296 2.673 
-0.477696 1.29552 2.672 
-0.396759 1.29455 2.67 
-0.346775 1.29939 2.68 
-0.272736 1.29697 2.675 
-0.220701 1.29309 2.667 
0.0941492 1.296 2.673 
0.152761 1.29552 2.672 
0.225309 1.29115 2.663 
0.269752 1.29406 2.669 
0.305792 1.29164 2.664 
0.356552 1.29018 2.661 
0.39409 1.29358 2.668 
0.431335 1.29552 2.672 
0.482832 1.296 2.673 
0.552839 1.28824 2.657 
0.612767 1.29164 2.664 
0.65391 1.2863 2.653 
0.706189 1.28873 2.658 
0.757522 1.28921 2.659 
0.824417 1.29115 2.663 
0.886161 1.28533 2.651 
0.961788 1.28921 2.659 
1.01514 1.29212 2.665 
1.10644 1.28776 2.656 
1.18481 1.28582 2.652 
1.41711 1.28533 2.651 
-0.939542 1.30285 2.672 
-0.858259 1.30187 2.67 
-0.773893 1.29553 2.657 
-0.719615 1.30285 2.672 
-0.547911 1.29553 2.657 
-0.477338 1.30187 2.67 
-0.381106 1.29846 2.663 
-0.29244 1.29407 2.654 
-0.234276 1.29456 2.655 
0.0935856 1.29553 2.657 
0.137169 1.29407 2.654 
0.1741 1.29797 2.662 
0.23244 1.29748 2.661 
0.267731 1.29163 2.649 
0.340666 1.29261 2.651 
0.377885 1.29553 2.657 
0.429398 1.29699 2.66 
0.484848 1.28919 2.644 
0.521512 1.29017 2.646 
0.559496 1.29407 2.654 
0.611157 1.29553 2.657 
0.657201 1.28578 2.637 
0.708919 1.28773 2.641 
0.770079 1.29309 2.652 
0.834303 1.29114 2.648 
0.954192 1.28627 2.638 
1.02423 1.28334 2.632 
1.15597 1.28529 2.636 
1.28371 1.28285 2.631 
-1.05407 1.30674 2.665 
-0.920726 1.30429 2.66 
-0.848065 1.30478 2.661 
-0.722321 1.30184 2.655 
-0.647521 1.29792 2.647 
-0.486461 1.29449 2.64 
-0.407557 1.29694 2.645 
-0.312627 1.29449 2.64 
0.063869 1.29154 2.634 
0.144124 1.29841 2.648 
0.179836 1.294 2.639 
0.215956 1.29351 2.638 
0.251857 1.29203 2.635 
0.325627 1.29792 2.647 
0.374899 1.29252 2.636 
0.454969 1.294 2.639 
0.505269 1.29302 2.637 
0.538979 1.28713 2.625 
0.575427 1.28811 2.627 
0.71848 1.28615 2.623 
0.777235 1.28811 2.627 
0.847693 1.28566 2.622 
0.917308 1.29252 2.636 
1.04113 1.28468 2.62 
1.12576 1.29105 2.633 
1.27736 1.2837 2.618 
-1.06793 1.30419 2.645 
-0.915188 1.3037 2.644 
-0.862448 1.30074 2.638 
-0.744948 1.29778 2.632 
-0.645809 1.30173 2.64 
-0.519905 1.29483 2.626 
-0.477766 1.29778 2.632 
-0.405708 1.29828 2.633 
-0.360989 1.29335 2.623 
-0.275364 1.2968 2.63 
0.0852891 1.29483 2.626 
0.157815 1.29877 2.634 
0.193801 1.29778 2.632 
0.243978 1.29581 2.628 
0.315358 1.29285 2.622 
0.365993 1.29384 2.624 
0.446202 1.2968 2.63 
0.48063 1.29236 2.621 
0.51757 1.29483 2.626 
0.565407 1.28891 2.614 
0.686013 1.28644 2.609 
0.744417 1.28842 2.613 
0.795208 1.2894 2.615 
0.85293 1.2899 2.616 
0.945511 1.28891 2.614 
1.05309 1.28891 2.614 
1.27817 1.28447 2.605 
1.66269 1.28891 2.614 
-0.863751 1.29906 2.62 
-0.663493 1.30104 2.624 
-0.603128 1.29509 2.612 
-0.424296 1.29608 2.614 
-0.388288 1.29559 2.613 
-0.316962 1.29707 2.616 
-0.244346 1.29261 2.607 
-0.208823 1.2941 2.61 
0.0919654 1.29459 2.611 
0.127783 1.29459 2.611 
0.214319 1.29806 2.618 
0.249276 1.29311 2.608 
0.291424 1.28964 2.601 
0.341377 1.28964 2.601 
0.378072 1.29311 2.608 
0.413055 1.29063 2.603 
0.470729 1.29211 2.606 
0.507256 1.2941 2.61 
0.555246 1.28914 2.6 
0.598506 1.29013 2.602 
0.6342 1.29013 2.602 
0.746696 1.28716 2.596 
0.79778 1.28914 2.6 
0.867442 1.28666 2.595 
0.938277 1.28616 2.594 
1.11336 1.29112 2.604 
-0.836079 1.29677 2.601 
-0.685957 1.29627 2.6 
-0.457338 1.29528 2.598 
-0.393793 1.29727 2.602 
-0.35042 1.29528 2.598 
-0.265803 1.29976 2.607 
-0.222546 1.29777 2.603 
0.0769842 1.29079 2.589 
0.134585 1.29827 2.604 
0.191813 1.29877 2.605 
0.234605 1.29827 2.604 
0.269289 1.29328 2.594 
0.305226 1.29478 2.597 
0.355375 1.29577 2.599 
0.390427 1.29378 2.595 
0.454503 1.29378 2.595 
0.504924 1.29528 2.598 
0.546215 1.29179 2.591 
0.594136 1.2878 2.583 
0.639367 1.29328 2.594 
0.68128 1.29179 2.591 
0.743244 1.2883 2.584 
0.778089 1.2873 2.582 
0.816029 1.29129 2.59 
0.882021 1.29428 2.596 
1.03591 1.29079 2.589 
1.33254 1.28231 2.572 
-0.733344 1.29889 2.591 
-0.568745 1.29639 2.586 
-0.433941 1.29639 2.586 
-0.399391 1.2994 2.592 
-0.348667 1.29589 2.585 
-0.278604 1.2999 2.593 
-0.242659 1.29789 2.589 
0.0977242 1.29037 2.574 
0.133758 1.29739 2.588 
0.175883 1.29388 2.581 
0.225801 1.29589 2.585 
0.26742 1.29137 2.576 
0.338489 1.29288 2.579 
0.373433 1.29137 2.576 
0.40877 1.29137 2.576 
0.443763 1.29037 2.574 
0.508504 1.29338 2.58 
0.55827 1.29388 2.581 
0.62176 1.29338 2.58 
0.661141 1.28736 2.568 
0.766824 1.28736 2.568 
0.859754 1.28937 2.572 
0.958173 1.28887 2.571 
1.03254 1.28486 2.563 
1.14371 1.28335 2.56 
1.32632 1.28335 2.56 
-0.922778 1.30247 2.584 
-0.596432 1.30197 2.583 
-0.468871 1.30197 2.583 
-0.404463 1.29995 2.579 
-0.347318 1.29794 2.575 
-0.291139 1.29945 2.578 
-0.247832 1.29491 2.569 
0.0553736 1.29794 2.575 
0.111544 1.29391 2.567 
0.153561 1.29189 2.563 
0.195676 1.29139 2.562 
0.295461 1.29743 2.574 
0.330385 1.29592 2.571 
0.373143 1.29743 2.574 
0.412932 1.28937 2.558 
0.505153 1.29189 2.563 
0.549266 1.29643 2.572 
0.582503 1.29189 2.563 
0.646294 1.2929 2.565 
0.685565 1.28735 2.554 
0.770254 1.28836 2.556 
0.874758 1.28735 2.554 
1.04415 1.28887 2.557 
1.30423 1.28937 2.558 
1.54654 1.2808 2.541 
-0.682694 1.29791 2.561 
-0.456957 1.29537 2.556 
-0.346643 1.30247 2.57 
-0.296245 1.29791 2.561 
-0.246771 1.29639 2.558 
-0.211432 1.29487 2.555 
0.0966991 1.29081 2.547 
0.167429 1.2974 2.56 
0.209898 1.29943 2.564 
0.313079 1.2898 2.545 
0.390959 1.29335 2.552 
0.475351 1.29436 2.554 
0.551348 1.29183 2.549 
0.586085 1.29132 2.548 
0.626057 1.28727 2.54 
0.664023 1.29335 2.552 
0.725044 1.2898 2.545 
0.76724 1.29031 2.546 
0.870991 1.28879 2.543 
1.05198 1.28828 2.542 
1.28566 1.29183 2.549 
1.39573 1.28372 2.533 
-0.469877 1.29933 2.55 
-0.372806 1.30239 2.556 
-0.307996 1.29525 2.542 
-0.252003 1.29423 2.54 
-0.217245 1.29474 2.541 
0.103361 1.29372 2.539 
0.159215 1.29474 2.541 
0.193919 1.29372 2.539 
0.271398 1.2978 2.547 
0.346351 1.29067 2.533 
0.430593 1.29321 2.538 
0.498846 1.28965 2.531 
0.557684 1.29729 2.546 
0.596769 1.29118 2.534 
0.653417 1.29321 2.538 
0.713829 1.28914 2.53 
0.782314 1.28761 2.527 
0.859597 1.28914 2.53 
0.961812 1.28659 2.525 
1.16179 1.28557 2.523 
1.3822 1.28455 2.521 
-0.584886 1.29762 2.533 
-0.459069 1.29557 2.529 
-0.370472 1.3012 2.54 
-0.299837 1.2971 2.532 
-0.23741 1.29762 2.533 
0.0820737 1.29454 2.527 
0.116416 1.29096 2.52 
0.158087 1.29249 2.523 
0.199778 1.29352 2.525 
0.270119 1.29864 2.535 
0.353579 1.29864 2.535 
0.401154 1.29506 2.528 
0.441718 1.29198 2.522 
0.510709 1.29147 2.521 
0.552865 1.29301 2.524 
0.613239 1.28891 2.516 
0.663663 1.29301 2.524 
0.753088 1.29198 2.522 
0.923869 1.28891 2.516 
1.02294 1.29198 2.522 
1.16686 1.29044 2.519 
1.37782 1.28737 2.513 
-0.714946 1.30096 2.526 
-0.477228 1.2953 2.515 
-0.374469 1.29787 2.52 
0.0609835 1.2953 2.515 
0.102507 1.29684 2.518 
0.143785 1.2953 2.515 
0.184597 1.29118 2.507 
0.233487 1.2953 2.515 
0.274997 1.29581 2.516 
0.308774 1.29272 2.51 
0.358685 1.2989 2.522 
0.392502 1.29633 2.517 
0.452486 1.29015 2.505 
0.487432 1.29169 2.508 
0.548923 1.29066 2.506 
0.623805 1.28912 2.503 
0.661033 1.29478 2.514 
0.83602 1.28809 2.501 
0.91983 1.29015 2.505 
1.00998 1.29118 2.507 
1.36575 1.28293 2.491 
-0.442375 1.30116 2.513 
-0.338551 1.29961 2.51 
-0.241369 1.29546 2.502 
0.088091 1.29495 2.501 
0.1224 1.29495 2.501 
0.204659 1.29443 2.5 
0.239527 1.29754 2.506 
0.27303 1.29339 2.498 
0.307174 1.29288 2.497 
0.356125 1.2965 2.504 
0.4101 1.29339 2.498 
0.452486 1.29702 2.505 
0.493525 1.2965 2.504 
0.621562 1.29132 2.494 
0.654986 1.28977 2.491 
0.722458 1.28822 2.488 
0.797224 1.2877 2.487 
0.864413 1.28614 2.484 
0.935567 1.29029 2.492 
1.00595 1.29288 2.497 
1.09613 1.28614 2.484 
-0.451808 1.29556 2.489 
-0.336527 1.29869 2.495 
-0.280749 1.294 2.486 
0.0875979 1.29452 2.487 
0.122008 1.29764 2.493 
0.203185 1.29192 2.482 
0.238667 1.29973 2.497 
0.299362 1.29556 2.489 
0.360676 1.29504 2.488 
0.407473 1.29192 2.482 
0.462136 1.29244 2.483 
0.605683 1.29348 2.485 
0.644769 1.28984 2.478 
0.695712 1.29608 2.49 
0.742936 1.29504 2.488 
0.849413 1.29088 2.48 
0.899935 1.29504 2.488 
0.988277 1.29452 2.487 
1.52366 1.28567 2.47 
-0.368971 1.29925 2.483 
-0.232255 1.29664 2.478 
0.114337 1.29507 2.475 
0.209233 1.29402 2.473 
0.256624 1.2935 2.472 
0.312265 1.29925 2.483 
0.372974 1.29716 2.479 
0.412781 1.29402 2.473 
0.481213 1.29559 2.476 
0.527484 1.29245 2.47 
0.623869 1.29559 2.476 
0.69208 1.29611 2.477 
0.721369 1.28774 2.461 
0.836153 1.28774 2.461 
0.88593 1.2914 2.468 
0.998607 1.28826 2.462 
-0.487831 1.29607 2.464 
-0.265603 1.30028 2.472 
0.0463015 1.29817 2.468 
0.106764 1.29239 2.457 
0.14721 1.29239 2.457 
0.235991 1.2987 2.469 
0.302377 1.29291 2.458 
0.37809 1.29817 2.468 
0.417021 1.29291 2.458 
0.465171 1.29554 2.463 
0.52428 1.29134 2.455 
0.564003 1.28976 2.452 
0.619334 1.29291 2.458 
0.698549 1.28976 2.452 
0.73129 1.28818 2.449 
1.09184 1.29344 2.459 
-0.391273 1.29649 2.452 
0.113182 1.29543 2.45 
0.159908 1.29278 2.445 
0.240798 1.2949 2.449 
0.31368 1.29067 2.441 
0.376558 1.29966 2.458 
0.409943 1.2986 2.456 
0.443454 1.29807 2.455 
0.490603 1.29807 2.455 
0.601656 1.29067 2.441 
0.648801 1.2912 2.442 
0.741687 1.28961 2.439 
0.856848 1.29173 2.443 
1.01354 1.28644 2.433 
-0.492183 1.30321 2.452 
0.0522985 1.29258 2.432 
0.145653 1.29205 2.431 
0.232263 1.29152 2.43 
0.332267 1.29152 2.43 
0.393722 1.2963 2.439 
0.432449 1.29205 2.431 
0.480122 1.29471 2.436 
0.612782 1.29258 2.432 
0.699524 1.29258 2.432 
0.792612 1.29205 2.431 
0.849483 1.28727 2.422 
-0.502957 1.30299 2.439 
-0.207242 1.29498 2.424 
0.111842 1.29338 2.421 
0.17226 1.29819 2.43 
0.239225 1.29979 2.433 
0.292145 1.29765 2.429 
0.338097 1.29498 2.424 
0.43659 1.29124 2.417 
0.47756 1.29445 2.423 
0.522364 1.29017 2.415 
0.589353 1.29178 2.418 
0.63658 1.29338 2.421 
0.720242 1.28857 2.412 
0.781093 1.29071 2.416 
0.895997 1.29391 2.422 
0.996495 1.29498 2.424 
-0.506723 1.30217 2.425 
-0.206131 1.29465 2.411 
-0.153276 1.29519 2.412 
0.118142 1.29626 2.414 
0.178117 1.29895 2.419 
0.217578 1.2968 2.415 
0.291303 1.30056 2.422 
0.37089 1.30002 2.421 
0.402265 1.29411 2.41 
0.469941 1.29841 2.418 
0.509534 1.29787 2.417 
0.560955 1.29411 2.41 
0.599381 1.29143 2.405 
0.658766 1.29143 2.405 
0.750206 1.28982 2.402 
0.819505 1.29519 2.412 
-0.510412 1.30127 2.411 
-0.338708 1.30235 2.413 
-0.145868 1.29479 2.399 
0.0782412 1.30019 2.409 
0.117799 1.29911 2.407 
0.209642 1.29533 2.4 
0.241958 1.29209 2.394 
0.360938 1.29479 2.399 
0.399261 1.29101 2.392 
0.438453 1.29047 2.391 
0.539322 1.29641 2.402 
0.576453 1.29101 2.392 
0.630795 1.29479 2.399 
0.754906 1.29317 2.396 
0.890717 1.28993 2.39 
-0.572495 1.29866 2.394 
-0.171406 1.2954 2.388 
-0.0731302 1.2954 2.388 
0.012042 1.2954 2.388 
0.0905866 1.29432 2.386 
0.123783 1.2992 2.395 
0.202211 1.29649 2.39 
0.287695 1.29757 2.392 
0.371918 1.29378 2.385 
0.418248 1.2954 2.388 
0.476414 1.29323 2.384 
0.566555 1.28998 2.378 
0.61979 1.29215 2.382 
0.726178 1.2954 2.388 
0.886617 1.29052 2.379 
1.07207 1.29378 2.385 
-0.170616 1.29596 2.377 
-0.0793149 1.29596 2.377 
-0.0336925 1.29705 2.379 
0.00546274 1.29541 2.376 
0.077072 1.29378 2.373 
0.109671 1.29432 2.374 
0.161845 1.29487 2.375 
0.226815 1.29378 2.373 
0.326114 1.30032 2.385 
0.370827 1.2965 2.378 
0.427558 1.29051 2.367 
0.551877 1.29269 2.371 
0.590658 1.29214 2.37 
0.795239 1.29705 2.379 
-0.215266 1.29645 2.366 
-0.12423 1.29481 2.363 
-0.0724871 1.297 2.367 
-0.0400673 1.29864 2.37 
0.00544435 1.29755 2.368 
0.0379926 1.29974 2.372 
0.070383 1.297 2.367 
0.128775 1.29645 2.366 
0.213974 1.30138 2.375 
0.283966 1.29371 2.361 
0.355822 1.2959 2.365 
0.439802 1.29481 2.363 
0.563219 1.29536 2.364 
0.802517 1.29426 2.362 
-0.214811 1.30019 2.361 
-0.0785474 1.29634 2.354 
-0.0397461 1.29468 2.351 
0.0182901 1.29358 2.349 
0.0506642 1.29744 2.356 
0.141339 1.29909 2.359 
0.179408 1.29358 2.349 
0.289583 1.29634 2.354 
0.354318 1.29689 2.355 
0.391749 1.29248 2.347 
0.476067 1.29413 2.35 
0.554143 1.29578 2.353 
0.660504 1.28918 2.341 
1.08672 1.29193 2.346 
-0.38258 1.30445 2.357 
-0.174604 1.29671 2.343 
-0.110133 1.29449 2.339 
-0.072089 1.30279 2.354 
-0.0331968 1.29726 2.344 
0.0376402 1.30058 2.35 
0.14044 1.29726 2.344 
0.275256 1.29615 2.342 
0.333512 1.29781 2.345 
0.384654 1.29671 2.343 
0.430201 1.29837 2.346 
0.472826 1.29173 2.334 
0.512342 1.29449 2.339 
0.613441 1.29117 2.333 
0.678611 1.29339 2.337 
0.722255 1.29117 2.333 
-0.238173 1.29924 2.336 
-0.148256 1.29757 2.333 
-0.0717521 1.30313 2.343 
-0.0393742 1.29535 2.329 
0.0309008 1.29479 2.328 
0.10155 1.2998 2.337 
0.254121 1.29312 2.325 
0.330383 1.29201 2.323 
0.389413 1.29757 2.333 
0.514989 1.29145 2.322 
0.644892 1.29646 2.331 
0.788587 1.2909 2.321 
-0.237153 1.30006 2.326 
-0.153728 1.29615 2.319 
-0.122652 1.30397 2.333 
-0.0712927 1.30118 2.328 
-0.0201353 1.29727 2.321 
0.0308477 1.29894 2.324 
0.0819271 1.30006 2.326 
0.113835 1.30006 2.326 
0.203265 1.30062 2.327 
0.305415 1.30062 2.327 
0.366878 1.29224 2.312 
0.43031 1.29224 2.312 
0.51889 1.29168 2.311 
0.575456 1.29056 2.309 
0.634388 1.29447 2.316 
0.727495 1.29056 2.309 
0.816538 1.29112 2.31 
-0.483111 1.29858 2.312 
-0.211172 1.30363 2.321 
-0.133886 1.29521 2.306 
-0.0644596 1.29858 2.312 
-0.0200572 1.29858 2.312 
0.0116941 1.30251 2.319 
0.0433373 1.29746 2.31 
0.100507 1.29914 2.313 
0.226344 1.29296 2.302 
0.277472 1.29577 2.307 
0.315038 1.29409 2.304 
0.384906 1.29521 2.306 
0.488031 1.30026 2.315 
0.547495 1.29072 2.298 
0.631922 1.29577 2.307 
0.788789 1.29352 2.303 
0.872064 1.29521 2.306 
-0.221785 1.29759 2.299 
-0.190165 1.29702 2.298 
-0.146222 1.29871 2.301 
-0.0957596 1.29928 2.302 
-0.045371 1.30323 2.309 
-0.00102538 1.3021 2.307 
0.0430558 1.29533 2.295 
0.112905 1.3021 2.307 
0.213898 1.30041 2.304 
0.333567 1.29871 2.301 
0.401434 1.29363 2.292 
0.46533 1.29646 2.297 
0.510332 1.29871 2.301 
0.566409 1.29702 2.298 
0.659543 1.2942 2.293 
0.788893 1.28968 2.285 
1.01906 1.28743 2.281 
-0.221303 1.30106 2.294 
-0.1829 1.29652 2.286 
-0.11386 1.29595 2.285 
-0.0829836 1.30333 2.298 
-0.0387318 1.29936 2.291 
0.0367112 1.29992 2.292 
0.0804125 1.29482 2.283 
0.118201 1.29709 2.287 
0.199858 1.29765 2.288 
0.257251 1.30219 2.296 
0.300033 1.29652 2.286 
0.350515 1.29765 2.288 
0.424168 1.29255 2.279 
0.462494 1.29482 2.283 
0.507448 1.29765 2.288 
0.654366 1.29028 2.275 
-0.288255 1.29709 2.276 
-0.18218 1.29766 2.277 
-0.120076 1.30165 2.284 
-0.076245 1.30222 2.285 
-0.0198316 1.30279 2.286 
0.0552367 1.29823 2.278 
0.086828 1.30336 2.287 
0.12355 1.29367 2.27 
0.205685 1.30108 2.283 
0.280603 1.29994 2.281 
0.36741 1.29709 2.276 
0.429098 1.29481 2.272 
0.473565 1.29709 2.276 
0.517503 1.29766 2.277 
0.639343 1.29139 2.266 
0.778857 1.29595 2.274 
-0.231851 1.30219 2.274 
-0.175237 1.29876 2.268 
-0.0758446 1.30162 2.273 
0.0300114 1.29475 2.261 
0.06735 1.29704 2.265 
0.104451 1.29475 2.261 
0.160138 1.2936 2.259 
0.223493 1.30162 2.273 
0.284974 1.29761 2.266 
0.359102 1.29589 2.263 
0.401674 1.29303 2.258 
0.51523 1.29818 2.267 
0.630332 1.29188 2.256 
1.00477 1.28788 2.249 
-0.292947 1.30268 2.264 
-0.156087 1.30095 2.261 
0.0175192 1.29462 2.25 
0.117012 1.30268 2.264 
0.302018 1.29692 2.254 
0.444645 1.29807 2.256 
0.652767 1.29347 2.248 
0.760987 1.29922 2.258 
-3.0611 1.24473 7.01 
-3.10043 1.24882 6.926 
-0.926364 1.24377 6.234 
-1.08561 1.24732 6.167 
-0.84694 1.2447 6.154 
-1.08518 1.24436 6.07 
0.425122 1.22939 5.997 
1.08434 1.23062 6.003 
-1.22306 1.24876 6.011 
-0.694979 1.24813 6.008 
1.50661 1.22881 5.915 
-1.1778 1.2522 5.949 
-0.947226 1.24946 5.936 
-0.619621 1.24567 5.918 
1.13268 1.22673 5.828 
-1.32321 1.25167 5.87 
-0.710377 1.25018 5.863 
1.63698 1.22523 5.746 
-0.809783 1.24597 5.769 
0.42302 1.24078 5.745 
2.44193 1.21789 5.639 
-0.642809 1.24495 5.692 
0.557306 1.2397 5.668 
1.0684 1.2373 5.657 
-1.70354 1.25968 5.688 
-0.714939 1.25016 5.645 
0.352014 1.24418 5.618 
2.24098 1.22358 5.525 
2.64306 1.22026 5.51 
-1.40263 1.25735 5.608 
-0.95643 1.25735 5.608 
0.408367 1.24345 5.546 
0.849171 1.24278 5.543 
2.12096 1.23067 5.489 
2.62052 1.22484 5.463 
0.372756 1.24142 5.47 
0.838447 1.2421 5.473 
1.88751 1.23098 5.424 
1.96698 1.23416 5.438 
2.49672 1.23052 5.422 
-1.12902 1.25757 5.475 
-0.886736 1.25482 5.463 
0.591747 1.24356 5.414 
2.17771 1.23323 5.369 
-2.02701 1.26121 5.426 
-1.40022 1.25981 5.42 
-1.12691 1.25354 5.393 
-0.670333 1.25749 5.41 
-0.460054 1.25075 5.381 
0.379469 1.24424 5.353 
0.964219 1.24075 5.338 
1.46106 1.23982 5.334 
-2.47016 1.26669 5.386 
-2.14267 1.26527 5.38 
-2.07118 1.26669 5.386 
-1.16717 1.26386 5.374 
-0.456719 1.25634 5.342 
0.924244 1.24105 5.277 
2.52503 1.23094 5.234 
-1.2948 1.25934 5.293 
-0.551775 1.25386 5.27 
-0.43685 1.256 5.279 
0.399371 1.24411 5.229 
0.700375 1.24363 5.227 
1.19023 1.24601 5.237 
2.51667 1.22722 5.158 
-1.12627 1.26399 5.252 
-0.702594 1.25364 5.209 
-0.459552 1.2534 5.208 
0.310178 1.24594 5.177 
0.609629 1.24835 5.187 
1.42728 1.24161 5.159 
-2.44212 1.27329 5.231 
-0.827067 1.2616 5.183 
-0.638489 1.2543 5.153 
0.21002 1.25576 5.159 
0.54759 1.25089 5.139 
1.08978 1.24213 5.103 
1.32701 1.2414 5.1 
2.22993 1.23775 5.085 
-1.08666 1.26352 5.133 
-0.919099 1.26549 5.141 
-0.621201 1.26204 5.127 
-0.435516 1.25392 5.094 
0.401929 1.25047 5.08 
0.735703 1.24924 5.075 
1.06861 1.24776 5.069 
1.31816 1.24702 5.066 
2.26486 1.23275 5.008 
-1.06401 1.26739 5.092 
-0.808078 1.26043 5.064 
-0.517231 1.26267 5.073 
0.247148 1.25694 5.05 
0.452363 1.24972 5.021 
0.741651 1.24972 5.021 
1.21722 1.243 4.994 
-2.12671 1.27356 5.061 
-1.00885 1.26476 5.026 
-0.788068 1.2645 5.025 
-0.482738 1.25922 5.004 
0.33916 1.25243 4.977 
0.801166 1.2489 4.963 
1.80113 1.24362 4.942 
-2.05152 1.27524 5.013 
-1.05512 1.26786 4.984 
-0.671571 1.26659 4.979 
-0.546314 1.26125 4.958 
-0.397164 1.26277 4.964 
0.402523 1.25082 4.917 
0.551252 1.25158 4.92 
0.85874 1.24726 4.903 
1.21046 1.24929 4.911 
2.10676 1.23759 4.865 
-1.21656 1.26456 4.918 
-1.04136 1.26482 4.919 
-0.741123 1.25917 4.897 
-0.63584 1.26354 4.914 
-0.377981 1.25788 4.892 
0.398921 1.25299 4.873 
0.544193 1.24888 4.857 
0.79935 1.25197 4.869 
1.02244 1.24708 4.85 
1.12773 1.24579 4.845 
1.29812 1.24348 4.836 
2.24503 1.23885 4.818 
-1.04542 1.26688 4.875 
-0.640337 1.25935 4.846 
0.183527 1.25623 4.834 
0.276594 1.25727 4.838 
0.60642 1.25311 4.822 
0.845604 1.25467 4.828 
1.42311 1.24999 4.81 
2.42645 1.23674 4.759 
-1.93637 1.27684 4.862 
-1.08968 1.26949 4.834 
-0.784801 1.26975 4.835 
0.19508 1.25846 4.792 
0.378035 1.25478 4.778 
0.601389 1.25584 4.782 
0.889468 1.25505 4.779 
1.05615 1.25058 4.762 
2.0782 1.24454 4.739 
-2.2347 1.27771 4.815 
-1.05194 1.26922 4.783 
-0.421256 1.26683 4.774 
0.270648 1.25622 4.734 
0.438844 1.25436 4.727 
0.622641 1.25887 4.744 
0.71029 1.25277 4.721 
1.00863 1.2533 4.723 
1.33314 1.25383 4.725 
1.9546 1.24507 4.692 
-2.03897 1.27591 4.759 
-1.53008 1.27618 4.76 
-1.07693 1.26545 4.72 
-0.440984 1.26143 4.705 
0.217771 1.26384 4.714 
0.422992 1.25875 4.695 
0.564445 1.25821 4.693 
0.757903 1.25875 4.695 
0.908008 1.25258 4.672 
1.35751 1.25339 4.675 
2.35353 1.23757 4.616 
-1.85896 1.27299 4.7 
-1.5912 1.27542 4.709 
-1.48627 1.27407 4.704 
-1.42113 1.27353 4.702 
-1.35201 1.26919 4.686 
-1.24836 1.26838 4.683 
-1.03082 1.26946 4.687 
-0.924781 1.26513 4.671 
-0.850793 1.26946 4.687 
-0.745206 1.26486 4.67 
-0.683331 1.26892 4.685 
-0.618005 1.26676 4.677 
-0.552899 1.26459 4.669 
-0.490525 1.26892 4.685 
0.176579 1.25971 4.651 
0.354768 1.25809 4.645 
0.496124 1.26107 4.656 
0.594334 1.25267 4.625 
0.799084 1.25538 4.635 
0.913927 1.25592 4.637 
1.21295 1.24942 4.613 
2.58292 1.24482 4.596 
-2.1629 1.2826 4.688 
-2.0243 1.2763 4.665 
-1.88916 1.28013 4.679 
-1.80788 1.27713 4.668 
-1.74422 1.2774 4.669 
-1.6645 1.27521 4.661 
-1.50748 1.2722 4.65 
-1.39865 1.27767 4.67 
-1.29115 1.27275 4.652 
-1.20465 1.27576 4.663 
-1.12717 1.27494 4.66 
-0.999314 1.27494 4.66 
-0.845347 1.27412 4.657 
-0.742334 1.27275 4.652 
-0.626521 1.27083 4.645 
0.289231 1.2629 4.616 
0.465825 1.26098 4.609 
0.605185 1.26153 4.611 
0.69013 1.25496 4.587 
0.902693 1.25305 4.58 
1.19274 1.25414 4.584 
-2.30774 1.28302 4.643 
-2.10256 1.28219 4.64 
-1.82328 1.28275 4.642 
-1.41116 1.2786 4.627 
-0.784348 1.27087 4.599 
-0.570093 1.27142 4.601 
0.198363 1.26147 4.565 
0.347741 1.25815 4.553 
0.499608 1.26313 4.571 
0.646971 1.25705 4.549 
0.746651 1.25677 4.548 
0.985245 1.25871 4.555 
1.79376 1.24738 4.514 
-2.26929 1.28125 4.591 
-2.09067 1.27985 4.586 
-1.43296 1.27679 4.575 
-0.777355 1.27204 4.558 
-0.575497 1.26813 4.544 
0.147356 1.26618 4.537 
0.33385 1.26534 4.534 
0.468505 1.25948 4.513 
0.568314 1.26116 4.519 
0.668091 1.26227 4.523 
0.754956 1.26227 4.523 
1.17011 1.25502 4.497 
1.30873 1.25781 4.507 
2.40536 1.24302 4.454 
-1.86835 1.27806 4.535 
-1.18376 1.27778 4.534 
-0.770022 1.27243 4.515 
-0.359719 1.26707 4.496 
0.343159 1.26623 4.493 
0.501392 1.26115 4.475 
0.649449 1.26256 4.48 
0.881998 1.26115 4.475 
1.24641 1.25721 4.461 
1.36114 1.25016 4.436 
1.72104 1.25524 4.454 
2.38321 1.24368 4.413 
-2.19651 1.28595 4.519 
-1.5439 1.27941 4.496 
-0.860458 1.27201 4.47 
-0.763882 1.27457 4.479 
-0.638707 1.27002 4.463 
-0.479956 1.27116 4.467 
0.180791 1.26376 4.441 
0.410622 1.25863 4.423 
0.484306 1.26091 4.431 
0.568504 1.25892 4.424 
0.712704 1.25636 4.415 
0.861946 1.26205 4.435 
0.98296 1.2612 4.432 
1.16299 1.25863 4.423 
1.78386 1.25152 4.398 
2.47524 1.24725 4.383 
-1.59992 1.27738 4.446 
-1.43332 1.28111 4.459 
-1.07202 1.27336 4.432 
-0.880234 1.27738 4.446 
-0.780714 1.27422 4.435 
-0.656361 1.26905 4.417 
-0.498707 1.26876 4.416 
0.166746 1.26186 4.392 
0.227926 1.26703 4.41 
0.348127 1.26416 4.4 
0.421419 1.26675 4.409 
0.503454 1.26014 4.386 
0.599174 1.25899 4.382 
0.697576 1.26301 4.396 
0.801539 1.25583 4.371 
0.901173 1.261 4.389 
1.01047 1.26215 4.393 
1.4834 1.25439 4.366 
1.86201 1.25123 4.355 
2.32746 1.25095 4.354 
-1.98085 1.28348 4.425 
-1.40516 1.27884 4.409 
-1.11307 1.27681 4.402 
-0.917116 1.27304 4.389 
-0.7843 1.27246 4.387 
-0.7026 1.2771 4.403 
-0.605272 1.27565 4.398 
-0.50689 1.27101 4.382 
-0.350358 1.27014 4.379 
0.331702 1.2597 4.343 
0.452829 1.26521 4.362 
0.524514 1.26492 4.361 
0.594389 1.26086 4.347 
0.725412 1.26057 4.346 
0.795854 1.25883 4.34 
0.904892 1.26144 4.349 
0.988642 1.26173 4.35 
1.24919 1.2597 4.343 
1.48716 1.25941 4.342 
1.74118 1.25361 4.322 
2.13343 1.24723 4.3 
-1.80779 1.28479 4.388 
-1.34077 1.27572 4.357 
-1.11134 1.27308 4.348 
-1.04455 1.27894 4.368 
-0.862812 1.27601 4.358 
-0.792525 1.27835 4.366 
-0.694303 1.27396 4.351 
-0.576382 1.27718 4.362 
-0.430489 1.27044 4.339 
-0.322157 1.26576 4.323 
0.222706 1.26166 4.309 
0.376743 1.26283 4.313 
0.473157 1.26752 4.329 
0.541904 1.26166 4.309 
0.613548 1.26312 4.314 
0.767059 1.26254 4.312 
0.839013 1.264 4.317 
0.989996 1.2602 4.304 
1.09271 1.2561 4.29 
1.46199 1.2599 4.303 
2.11656 1.24907 4.266 
2.18832 1.24995 4.269 
2.57685 1.24526 4.253 
-1.55997 1.28117 4.335 
-1.25827 1.27673 4.32 
-1.07234 1.28117 4.335 
-0.901235 1.27467 4.313 
-0.828311 1.27171 4.303 
-0.758709 1.27378 4.31 
-0.651075 1.27141 4.302 
-0.487979 1.27703 4.321 
0.210101 1.26875 4.293 
0.314632 1.26284 4.273 
0.40928 1.2655 4.282 
0.503499 1.26609 4.284 
0.572279 1.26225 4.271 
0.630278 1.26107 4.267 
0.726478 1.2655 4.282 
0.780817 1.25841 4.258 
0.935096 1.26166 4.269 
1.01899 1.26403 4.277 
1.1126 1.26373 4.276 
1.35325 1.25841 4.258 
1.45565 1.25605 4.25 
2.08432 1.25546 4.248 
-2.10773 1.2862 4.312 
-1.48597 1.28053 4.293 
-1.25954 1.27785 4.284 
-1.02757 1.28173 4.297 
-0.938671 1.27308 4.268 
-0.85871 1.27606 4.278 
-0.763383 1.27367 4.27 
-0.610227 1.27188 4.264 
-0.528213 1.27158 4.263 
-0.423048 1.27188 4.264 
0.218985 1.26383 4.237 
0.312939 1.26771 4.25 
0.45169 1.26443 4.239 
0.532095 1.26204 4.231 
0.762452 1.25906 4.221 
0.846714 1.26383 4.237 
0.926772 1.26204 4.231 
1.0567 1.26472 4.24 
1.14787 1.26264 4.233 
1.3318 1.26085 4.227 
1.45212 1.25458 4.206 
1.83772 1.25786 4.217 
2.47528 1.24683 4.18 
-2.10039 1.28629 4.273 
-1.56111 1.28629 4.273 
-1.41744 1.28358 4.264 
-1.26417 1.28238 4.26 
-1.03041 1.28238 4.26 
-0.884936 1.27485 4.235 
-0.817339 1.27816 4.246 
-0.664173 1.27485 4.235 
-0.467529 1.27726 4.243 
-0.384222 1.27124 4.223 
0.274949 1.26552 4.204 
0.402016 1.26612 4.206 
0.494215 1.26582 4.205 
0.610453 1.26763 4.211 
0.711209 1.26191 4.192 
0.835323 1.25829 4.18 
0.919763 1.26401 4.199 
1.02223 1.26251 4.194 
1.0983 1.25739 4.177 
1.20662 1.26281 4.195 
1.34121 1.2595 4.184 
1.70446 1.25649 4.174 
1.9156 1.25227 4.16 
2.14854 1.24836 4.147 
-2.05944 1.28708 4.237 
-1.63398 1.28161 4.219 
-1.41506 1.28252 4.222 
-1.2167 1.281 4.217 
-1.05447 1.2807 4.216 
-0.901098 1.27645 4.202 
-0.846065 1.2804 4.215 
-0.657743 1.27402 4.194 
-0.475331 1.27857 4.209 
0.409622 1.26551 4.166 
0.537406 1.27037 4.182 
0.605234 1.26824 4.175 
0.68558 1.26855 4.176 
0.75053 1.26217 4.155 
0.829928 1.26156 4.153 
0.911877 1.2646 4.163 
1.03502 1.26156 4.153 
1.16176 1.26308 4.158 
1.27185 1.25913 4.145 
1.50738 1.2564 4.136 
1.69425 1.26035 4.149 
1.98638 1.25792 4.141 
2.23574 1.25123 4.119 
-1.85532 1.28614 4.196 
-1.71676 1.28583 4.195 
-1.6101 1.28338 4.187 
-1.55229 1.28307 4.186 
-1.41178 1.28062 4.178 
-1.28384 1.27878 4.172 
-0.994812 1.2751 4.16 
-0.859089 1.27694 4.166 
-0.525471 1.27173 4.149 
-0.413028 1.27602 4.163 
0.145891 1.26958 4.142 
0.293481 1.26897 4.14 
0.451188 1.26529 4.128 
0.574235 1.26192 4.117 
0.655842 1.26683 4.133 
0.746195 1.26621 4.131 
0.815774 1.26866 4.139 
0.911988 1.26039 4.112 
1.10914 1.26652 4.132 
1.23056 1.26315 4.121 
1.37454 1.26039 4.112 
1.6044 1.25487 4.094 
1.78368 1.25456 4.093 
2.05419 1.25518 4.095 
-2.01737 1.29084 4.174 
-1.84681 1.28373 4.151 
-1.6092 1.28497 4.155 
-1.41847 1.28775 4.164 
-1.36102 1.28744 4.163 
-1.23782 1.27816 4.133 
-1.04429 1.27724 4.13 
-0.979616 1.28157 4.144 
-0.87348 1.276 4.126 
-0.784817 1.27909 4.136 
-0.375215 1.27538 4.124 
0.268671 1.27043 4.108 
0.435707 1.26456 4.089 
0.515243 1.26703 4.097 
0.605758 1.26827 4.101 
0.715646 1.26363 4.086 
0.827951 1.26394 4.087 
0.882719 1.26208 4.081 
0.950132 1.26239 4.082 
1.0832 1.26085 4.077 
1.18241 1.2593 4.072 
1.36217 1.26023 4.075 
1.47144 1.25806 4.068 
1.534 1.26363 4.086 
1.80804 1.2593 4.072 
2.04165 1.25868 4.07 
-2.21942 1.29325 4.145 
-1.83747 1.28857 4.13 
-1.69303 1.29075 4.137 
-1.47487 1.28857 4.13 
-1.37551 1.28046 4.104 
-1.26168 1.27921 4.1 
-1.13933 1.28077 4.105 
-0.990019 1.27702 4.093 
-0.87708 1.27609 4.09 
-0.741154 1.2739 4.083 
0.155167 1.27515 4.087 
0.265859 1.26829 4.065 
0.455231 1.26766 4.063 
0.566145 1.26642 4.059 
0.653298 1.26267 4.047 
0.77486 1.26174 4.044 
0.854634 1.26486 4.054 
0.929962 1.26142 4.043 
1.04294 1.26392 4.051 
1.17167 1.25893 4.035 
1.30743 1.26174 4.044 
1.35886 1.25799 4.032 
1.45023 1.26049 4.04 
1.52555 1.25862 4.034 
1.79561 1.26174 4.044 
2.07532 1.25643 4.027 
-2.1038 1.28951 4.097 
-1.52455 1.28448 4.081 
-1.32334 1.28479 4.082 
-1.17429 1.28101 4.07 
-0.793064 1.2785 4.062 
-0.556828 1.27346 4.046 
0.108776 1.26842 4.03 
0.274354 1.26717 4.026 
0.408216 1.27126 4.039 
0.461442 1.26528 4.02 
0.562519 1.26937 4.033 
0.692539 1.26433 4.017 
0.80215 1.26339 4.014 
0.871255 1.26779 4.028 
0.946023 1.26433 4.017 
1.01265 1.26496 4.019 
1.0638 1.26024 4.004 
1.19951 1.26433 4.017 
1.31712 1.26087 4.006 
1.38341 1.26119 4.007 
1.49372 1.2615 4.008 
1.63831 1.26276 4.012 
1.74838 1.26276 4.012 
2.11874 1.25395 3.984 
-1.67923 1.28551 4.049 
-1.58159 1.28742 4.055 
-1.51073 1.28393 4.044 
-1.34264 1.28234 4.039 
-0.96755 1.28456 4.046 
-0.653974 1.27916 4.029 
0.152319 1.27377 4.012 
0.293721 1.26646 3.989 
0.360287 1.26964 3.999 
0.459032 1.26964 3.999 
0.5568 1.26742 3.992 
0.632039 1.26456 3.983 
0.755077 1.26932 3.998 
0.808098 1.26646 3.989 
0.863036 1.26678 3.99 
0.991658 1.26329 3.979 
1.1252 1.26615 3.988 
1.24555 1.26615 3.988 
1.30157 1.26742 3.992 
1.37754 1.26678 3.99 
1.46218 1.26424 3.982 
1.63451 1.26234 3.976 
1.76719 1.26361 3.98 
2.21854 1.25948 3.967 
-1.82705 1.29118 4.032 
-1.53973 1.28221 4.004 
-1.46649 1.28541 4.014 
-1.35264 1.28189 4.003 
-1.18909 1.28317 4.007 
-0.737615 1.28189 4.003 
-0.559928 1.27741 3.989 
0.128875 1.27068 3.968 
0.19444 1.27228 3.973 
0.314027 1.271 3.969 
0.421961 1.26812 3.96 
0.497888 1.2678 3.959 
0.563628 1.26908 3.963 
0.660649 1.26748 3.958 
0.735175 1.26492 3.95 
0.814731 1.27068 3.968 
0.919873 1.26556 3.952 
0.992748 1.26172 3.94 
1.09973 1.26044 3.936 
1.18219 1.2678 3.959 
1.28722 1.26428 3.948 
1.34172 1.2646 3.949 
1.42767 1.26396 3.947 
1.54326 1.26108 3.938 
1.59647 1.26044 3.936 
1.85942 1.263 3.944 
2.07184 1.25403 3.916 
-1.62878 1.28545 3.98 
-1.51511 1.29094 3.997 
-1.32137 1.28383 3.975 
-0.973117 1.2848 3.978 
-0.6845 1.27576 3.95 
-0.456224 1.27382 3.944 
0.19302 1.27382 3.944 
0.342764 1.26736 3.924 
0.40819 1.26994 3.932 
0.505537 1.27059 3.934 
0.581681 1.27188 3.938 
0.696437 1.26445 3.915 
0.797362 1.27123 3.936 
0.903049 1.268 3.926 
0.965706 1.26542 3.918 
1.05412 1.26833 3.927 
1.13392 1.26122 3.905 
1.23066 1.26155 3.906 
1.30701 1.26284 3.91 
1.35821 1.26058 3.903 
1.4283 1.26574 3.919 
1.49395 1.26671 3.922 
1.56487 1.26316 3.911 
1.68757 1.25864 3.897 
1.8489 1.25928 3.899 
-1.67982 1.28529 3.946 
-1.53174 1.28822 3.955 
-1.27292 1.28985 3.96 
-1.02711 1.28138 3.934 
-0.604633 1.27812 3.924 
0.255263 1.27128 3.903 
0.383468 1.27031 3.9 
0.437976 1.27324 3.909 
0.532995 1.26966 3.898 
0.587671 1.27226 3.906 
0.650801 1.26998 3.899 
0.733736 1.26542 3.885 
0.812717 1.27226 3.906 
0.885005 1.26835 3.894 
0.978638 1.2651 3.884 
1.0852 1.2651 3.884 
1.1577 1.26282 3.877 
1.20901 1.26086 3.871 
1.26342 1.26216 3.875 
1.33337 1.26803 3.893 
1.39351 1.26444 3.882 
1.44341 1.26151 3.873 
1.55127 1.26282 3.877 
1.60776 1.26542 3.885 
1.65806 1.26314 3.878 
1.72673 1.25891 3.865 
2.01998 1.25663 3.858 
-1.25942 1.28692 3.918 
-1.03527 1.28889 3.924 
-0.641754 1.27707 3.888 
-0.502564 1.27575 3.884 
0.264609 1.27542 3.883 
0.379928 1.26918 3.864 
0.432374 1.26754 3.859 
0.507799 1.27083 3.869 
0.603646 1.27148 3.871 
0.6653 1.26754 3.859 
0.792966 1.26853 3.862 
0.972087 1.26721 3.858 
1.02395 1.2659 3.854 
1.12822 1.26426 3.849 
1.25657 1.2659 3.854 
1.33629 1.2613 3.84 
1.38752 1.25999 3.836 
1.44803 1.26688 3.857 
1.49744 1.26393 3.848 
1.56766 1.26097 3.839 
1.62117 1.26163 3.841 
1.70281 1.25966 3.835 
1.89925 1.25736 3.828 
-1.96285 1.29369 3.906 
-1.05287 1.28177 3.87 
-0.722042 1.27879 3.861 
0.10389 1.27482 3.849 
0.273703 1.27879 3.861 
0.356404 1.2715 3.839 
0.408109 1.26852 3.83 
0.533647 1.2672 3.826 
0.586591 1.26819 3.829 
0.670458 1.26786 3.828 
0.774065 1.26554 3.821 
0.827346 1.26687 3.825 
0.96226 1.26488 3.819 
1.01571 1.2662 3.823 
1.13434 1.26985 3.834 
1.27526 1.26355 3.815 
1.35029 1.26521 3.82 
1.40123 1.26389 3.816 
1.48848 1.26687 3.825 
1.57879 1.26355 3.815 
1.6886 1.25958 3.803 
1.78964 1.25726 3.796 
-1.94275 1.29105 3.866 
-1.0766 1.2827 3.841 
-0.727701 1.2807 3.835 
-0.536907 1.27736 3.825 
-0.431965 1.27736 3.825 
0.155185 1.27302 3.812 
0.217765 1.27202 3.809 
0.30113 1.27102 3.806 
0.354455 1.27502 3.818 
0.44732 1.27102 3.806 
0.498874 1.26935 3.801 
0.571271 1.26801 3.797 
0.625821 1.27302 3.812 
0.686947 1.27001 3.803 
0.769203 1.26801 3.797 
0.852767 1.26834 3.798 
0.904868 1.26834 3.798 
0.957725 1.26935 3.801 
1.00854 1.26768 3.796 
1.08287 1.26935 3.801 
1.13053 1.26434 3.786 
1.18746 1.26968 3.802 
1.28736 1.26534 3.789 
1.37052 1.26534 3.789 
1.45752 1.26868 3.799 
1.53158 1.261 3.776 
1.64902 1.26367 3.784 
1.74913 1.261 3.776 
1.97443 1.25933 3.771 
2.22657 1.25565 3.76 
-1.17644 1.28718 3.823 
-0.711383 1.28078 3.804 
-0.574495 1.27809 3.796 
-0.523385 1.28045 3.803 
-0.407645 1.27742 3.794 
-0.293453 1.27876 3.798 
0.16447 1.27439 3.785 
0.257862 1.27405 3.784 
0.330797 1.27506 3.787 
0.444499 1.27338 3.782 
0.506623 1.27304 3.781 
0.569466 1.27439 3.785 
0.620732 1.27304 3.781 
0.681709 1.27068 3.774 
0.754189 1.27068 3.774 
0.859551 1.27338 3.782 
0.907817 1.26833 3.767 
0.970858 1.26967 3.771 
1.02367 1.27102 3.775 
1.0746 1.27001 3.772 
1.12247 1.26563 3.759 
1.17684 1.26866 3.768 
1.24556 1.26496 3.757 
1.3803 1.26563 3.759 
1.46358 1.26631 3.761 
1.53955 1.26092 3.745 
1.62132 1.26058 3.744 
1.73325 1.26732 3.764 
2.04302 1.26092 3.745 
-1.20096 1.2902 3.801 
-1.04068 1.28545 3.787 
-0.831344 1.28307 3.78 
-0.664003 1.28036 3.772 
-0.562595 1.28511 3.786 
-0.447151 1.28172 3.776 
-0.3541 1.2824 3.778 
0.173238 1.27289 3.75 
0.265621 1.27187 3.747 
0.339295 1.27832 3.766 
0.398945 1.27086 3.744 
0.449824 1.2695 3.74 
0.502737 1.27357 3.752 
0.556127 1.27798 3.765 
0.625263 1.27153 3.746 
0.677915 1.27391 3.753 
0.729593 1.27425 3.754 
0.778178 1.2695 3.74 
0.841989 1.27289 3.75 
0.902274 1.27086 3.744 
0.960817 1.26678 3.732 
1.0486 1.27391 3.753 
1.10239 1.26475 3.726 
1.16497 1.2661 3.73 
1.21712 1.26712 3.733 
1.27994 1.26848 3.737 
1.36708 1.26373 3.723 
1.45113 1.26576 3.729 
1.58966 1.26203 3.718 
1.71345 1.26305 3.721 
1.86973 1.2583 3.707 
-1.47121 1.29071 3.772 
-1.16799 1.28729 3.762 
-1.10577 1.28694 3.761 
-0.721861 1.28318 3.75 
-0.638871 1.28181 3.746 
-0.525678 1.28147 3.745 
-0.309328 1.27907 3.738 
0.120821 1.27291 3.72 
0.18196 1.27223 3.718 
0.284349 1.27394 3.723 
0.346192 1.27599 3.729 
0.396494 1.27326 3.721 
0.469592 1.27771 3.734 
0.528072 1.27052 3.713 
0.609732 1.27086 3.714 
0.664239 1.27771 3.734 
0.742199 1.27086 3.714 
0.806582 1.27599 3.729 
0.872075 1.2671 3.703 
0.922872 1.2671 3.703 
0.989143 1.27394 3.723 
1.06597 1.26812 3.706 
1.14483 1.26539 3.698 
1.1988 1.26881 3.708 
1.25848 1.26744 3.704 
1.33507 1.26299 3.691 
1.41091 1.26744 3.704 
1.46409 1.26949 3.71 
1.62388 1.2671 3.703 
1.69591 1.26778 3.705 
2.02368 1.26299 3.691 
-1.16986 1.2883 3.735 
-1.09577 1.28554 3.727 
-0.76588 1.28105 3.714 
-0.674898 1.28243 3.718 
-0.623559 1.28174 3.716 
-0.572737 1.28209 3.717 
-0.501621 1.28278 3.719 
-0.418639 1.27864 3.707 
-0.357616 1.27864 3.707 
-0.307342 1.28105 3.714 
0.140853 1.27967 3.71 
0.262857 1.27898 3.708 
0.3133 1.27726 3.703 
0.374965 1.27967 3.71 
0.424137 1.2745 3.695 
0.475981 1.2776 3.704 
0.577136 1.27657 3.701 
0.625361 1.27139 3.686 
0.68455 1.26863 3.678 
0.758266 1.27381 3.693 
0.828742 1.27312 3.691 
0.875563 1.2676 3.675 
0.938352 1.2707 3.684 
1.00062 1.27277 3.69 
1.05181 1.27346 3.692 
1.10927 1.26967 3.681 
1.17869 1.26829 3.677 
1.2318 1.27105 3.685 
1.27992 1.26863 3.678 
1.34541 1.26381 3.664 
1.3972 1.26518 3.668 
1.46275 1.26967 3.681 
1.54393 1.26174 3.658 
1.60371 1.26139 3.657 
1.82943 1.26484 3.667 
-1.19982 1.28672 3.701 
-0.864039 1.28568 3.698 
-0.690624 1.28394 3.693 
-0.620035 1.28464 3.695 
-0.568577 1.2829 3.69 
-0.499733 1.28811 3.705 
-0.435427 1.27838 3.677 
-0.385614 1.28046 3.683 
-0.305274 1.28255 3.689 
0.119229 1.27629 3.671 
0.169911 1.27873 3.678 
0.230206 1.27733 3.674 
0.311016 1.27803 3.676 
0.361836 1.27942 3.68 
0.412206 1.27907 3.679 
0.462801 1.27942 3.68 
0.510772 1.27316 3.662 
0.571366 1.27386 3.664 
0.621799 1.27421 3.665 
0.692374 1.27455 3.666 
0.751901 1.27316 3.662 
0.811518 1.27212 3.659 
0.858886 1.26795 3.647 
0.929946 1.26934 3.651 
0.981641 1.27142 3.657 
1.03153 1.27108 3.656 
1.10325 1.27281 3.661 
1.17972 1.26864 3.649 
1.23349 1.27247 3.66 
1.29055 1.26934 3.651 
1.35213 1.27073 3.655 
1.43353 1.27177 3.658 
1.52928 1.26795 3.647 
1.73321 1.26343 3.634 
2.10326 1.26412 3.636 
-1.18292 1.28952 3.68 
-0.987585 1.28496 3.667 
-0.856562 1.28461 3.666 
-0.755363 1.28356 3.663 
-0.643407 1.28076 3.655 
-0.575094 1.28496 3.667 
-0.505356 1.28671 3.672 
-0.424876 1.28706 3.673 
-0.36223 1.27936 3.651 
-0.292272 1.28006 3.653 
0.0987889 1.28251 3.66 
0.148671 1.27971 3.652 
0.229079 1.28111 3.656 
0.30907 1.28006 3.653 
0.368294 1.2769 3.644 
0.418282 1.2769 3.644 
0.468271 1.2769 3.644 
0.557484 1.27515 3.639 
0.606402 1.27305 3.633 
0.658407 1.27725 3.645 
0.745126 1.27165 3.629 
0.795346 1.27235 3.631 
0.845622 1.27305 3.633 
0.902934 1.26954 3.623 
0.957894 1.27655 3.643 
1.0256 1.27375 3.635 
1.07192 1.26954 3.623 
1.12223 1.27024 3.625 
1.19284 1.2713 3.628 
1.27457 1.2734 3.634 
1.33109 1.27024 3.625 
1.39453 1.26464 3.609 
1.45635 1.26674 3.615 
1.50844 1.26884 3.621 
1.63262 1.26499 3.61 
1.76235 1.26569 3.612 
-1.04138 1.2869 3.644 
-0.909657 1.28443 3.637 
-0.780365 1.28513 3.639 
-0.69013 1.28443 3.637 
-0.58921 1.28196 3.63 
-0.5296 1.28231 3.631 
-0.480979 1.28549 3.64 
-0.399763 1.28125 3.628 
-0.340322 1.28231 3.631 
-0.291232 1.28549 3.64 
0.117573 1.27842 3.62 
0.197136 1.27913 3.622 
0.266918 1.28019 3.625 
0.325961 1.27772 3.618 
0.385306 1.27701 3.616 
0.434188 1.27489 3.61 
0.495939 1.2809 3.627 
0.592987 1.2756 3.612 
0.642003 1.27454 3.609 
0.73132 1.27489 3.61 
0.782572 1.27772 3.618 
0.829214 1.27313 3.605 
0.899196 1.27419 3.608 
0.950531 1.27666 3.615 
1.02931 1.27595 3.613 
1.07857 1.2756 3.612 
1.12562 1.27277 3.604 
1.18396 1.27171 3.601 
1.23473 1.27313 3.605 
1.28312 1.27207 3.602 
1.32957 1.26924 3.594 
1.38332 1.2643 3.58 
1.43403 1.26571 3.584 
1.50915 1.27101 3.599 
1.61732 1.27065 3.598 
1.7242 1.26218 3.574 
1.96879 1.26183 3.573 
-1.24137 1.28658 3.615 
-1.09532 1.28978 3.624 
-0.892257 1.28373 3.607 
-0.802746 1.28302 3.605 
-0.755801 1.28729 3.617 
-0.694911 1.2848 3.61 
-0.624714 1.28302 3.605 
-0.556866 1.28622 3.614 
-0.505746 1.28231 3.603 
-0.438124 1.28693 3.616 
-0.357369 1.28195 3.602 
-0.308982 1.28622 3.614 
-0.258831 1.28337 3.606 
0.176136 1.28088 3.599 
0.245733 1.28337 3.606 
0.314288 1.28053 3.598 
0.401338 1.27483 3.582 
0.451859 1.27875 3.593 
0.501845 1.28053 3.598 
0.599392 1.27803 3.591 
0.67821 1.27803 3.591 
0.767094 1.27839 3.592 
0.865162 1.27768 3.59 
0.920912 1.27305 3.577 
0.988225 1.27127 3.572 
1.03839 1.2727 3.576 
1.0991 1.27483 3.582 
1.16658 1.27341 3.578 
1.23323 1.27127 3.572 
1.279 1.26807 3.563 
1.33198 1.27198 3.574 
1.40022 1.27163 3.573 
1.48595 1.26949 3.567 
1.5776 1.26451 3.553 
1.75503 1.26593 3.557 
1.85054 1.26451 3.553 
-1.40296 1.29004 3.597 
-1.16676 1.29076 3.599 
-1.08867 1.29183 3.602 
-0.946885 1.28717 3.589 
-0.868111 1.28717 3.589 
-0.761278 1.28968 3.596 
-0.710365 1.28681 3.588 
-0.639132 1.28215 3.575 
-0.570314 1.28179 3.574 
-0.491594 1.28107 3.572 
-0.404183 1.28358 3.579 
-0.316692 1.28717 3.589 
0.0862983 1.27641 3.559 
0.18415 1.27785 3.563 
0.234073 1.28358 3.579 
0.302216 1.28107 3.572 
0.409559 1.27964 3.568 
0.458247 1.27892 3.566 
0.556864 1.28071 3.571 
0.624745 1.27928 3.567 
0.672733 1.27749 3.562 
0.722001 1.2782 3.564 
0.768729 1.27462 3.554 
0.820473 1.27928 3.567 
0.925261 1.27533 3.556 
0.973769 1.27498 3.555 
1.02196 1.27426 3.553 
1.09964 1.2739 3.552 
1.1503 1.27605 3.558 
1.2277 1.27533 3.556 
1.27973 1.26888 3.538 
1.35777 1.26924 3.539 
1.46416 1.26888 3.538 
1.62595 1.26637 3.531 
1.83439 1.26314 3.522 
-1.15833 1.29123 3.573 
-1.07749 1.28834 3.565 
-0.944247 1.2934 3.579 
-0.873799 1.29087 3.572 
-0.773626 1.28726 3.562 
-0.723949 1.28581 3.558 
-0.667622 1.29015 3.57 
-0.587615 1.28654 3.56 
-0.499569 1.28618 3.559 
-0.449227 1.28184 3.547 
-0.391389 1.28365 3.552 
-0.304708 1.28798 3.564 
0.095442 1.27786 3.536 
0.164229 1.28473 3.555 
0.212457 1.28148 3.546 
0.280717 1.2822 3.548 
0.36843 1.28256 3.549 
0.446452 1.28292 3.55 
0.552653 1.28075 3.544 
0.620541 1.28039 3.543 
0.667633 1.2775 3.535 
0.716532 1.27822 3.537 
0.761159 1.27172 3.519 
0.841494 1.27642 3.532 
0.919537 1.27714 3.534 
1.00708 1.2775 3.535 
1.09782 1.27027 3.515 
1.17899 1.27461 3.527 
1.25711 1.27533 3.529 
1.30478 1.27461 3.527 
1.3771 1.26991 3.514 
1.44541 1.27064 3.516 
1.52085 1.26919 3.512 
-1.13043 1.29157 3.547 
-0.966359 1.29339 3.552 
-0.903031 1.28647 3.533 
-0.855533 1.28793 3.537 
-0.789831 1.29157 3.547 
-0.740547 1.29048 3.544 
-0.682014 1.29011 3.543 
-0.622811 1.28829 3.538 
-0.573952 1.28756 3.536 
-0.487741 1.29048 3.544 
-0.43615 1.28174 3.52 
-0.388965 1.28538 3.53 
-0.31175 1.28647 3.533 
0.0851829 1.27919 3.513 
0.172515 1.28356 3.525 
0.220494 1.28137 3.519 
0.288323 1.28247 3.522 
0.355155 1.27955 3.514 
0.403934 1.28137 3.519 
0.481582 1.28247 3.522 
0.596859 1.28101 3.518 
0.644385 1.27955 3.514 
0.692196 1.27883 3.512 
0.738055 1.27482 3.501 
0.787878 1.27773 3.509 
0.882387 1.27518 3.502 
0.978747 1.27555 3.503 
1.0947 1.27628 3.505 
1.14278 1.27628 3.505 
1.21079 1.277 3.507 
1.26743 1.27591 3.504 
1.3202 1.27118 3.491 
1.37964 1.273 3.496 
1.45845 1.27482 3.501 
1.5209 1.27081 3.49 
1.63064 1.26681 3.479 
-1.36172 1.28993 3.516 
-1.21115 1.29396 3.527 
-1.12215 1.29176 3.521 
-1.01473 1.2903 3.517 
-0.963463 1.28626 3.506 
-0.915107 1.28589 3.505 
-0.8601 1.28993 3.516 
-0.80979 1.28663 3.507 
-0.762984 1.28883 3.513 
-0.712554 1.28479 3.502 
-0.649167 1.2925 3.523 
-0.591005 1.29213 3.522 
-0.532574 1.29103 3.519 
-0.425402 1.28809 3.511 
-0.338032 1.28553 3.504 
-0.290709 1.28883 3.513 
0.0844797 1.27819 3.484 
0.171438 1.28516 3.503 
0.218865 1.28149 3.493 
0.31542 1.28443 3.501 
0.363135 1.28332 3.498 
0.486642 1.28002 3.489 
0.619944 1.27856 3.485 
0.667368 1.27782 3.483 
0.715969 1.27929 3.487 
0.762709 1.27745 3.482 
0.878355 1.27892 3.486 
0.945847 1.27966 3.488 
1.01771 1.27379 3.472 
1.1044 1.27489 3.475 
1.22587 1.27232 3.468 
1.2837 1.27305 3.47 
1.34761 1.27048 3.463 
1.42157 1.26865 3.458 
1.51305 1.27379 3.472 
1.5905 1.26718 3.454 
1.83316 1.26461 3.447 
-1.29383 1.2896 3.489 
-1.20291 1.29477 3.503 
-1.14328 1.29255 3.497 
-1.07212 1.28775 3.484 
-1.02639 1.29033 3.491 
-0.969197 1.2907 3.492 
-0.922613 1.29255 3.497 
-0.87264 1.2896 3.489 
-0.823123 1.28701 3.482 
-0.747555 1.28849 3.486 
-0.698932 1.28701 3.482 
-0.644745 1.29329 3.499 
-0.565998 1.28886 3.487 
-0.518164 1.28886 3.487 
-0.345165 1.2859 3.479 
-0.29821 1.28923 3.488 
0.0843342 1.28553 3.478 
0.217174 1.28109 3.466 
0.283821 1.28146 3.467 
0.341483 1.28368 3.473 
0.416749 1.28072 3.465 
0.46522 1.28331 3.472 
0.587358 1.27962 3.462 
0.63485 1.27962 3.462 
0.68313 1.28109 3.466 
0.730887 1.28146 3.467 
0.863557 1.28072 3.465 
0.947199 1.27814 3.458 
1.02103 1.27555 3.451 
1.13629 1.2774 3.456 
1.21915 1.27481 3.449 
1.31416 1.27518 3.45 
