0.367828 1.25917 4.649 
0.45849 1.26296 4.663 
0.786198 1.25511 4.634 
1.05705 1.25971 4.651 
1.7411 1.24698 4.604 
2.02426 1.25023 4.616 
-1.88515 1.28615 4.701 
-1.74364 1.28643 4.702 
-1.52012 1.28287 4.689 
-1.28966 1.28396 4.693 
-1.01579 1.27959 4.677 
-0.950208 1.27767 4.67 
-0.870153 1.27302 4.653 
-0.742494 1.27302 4.653 
-0.679247 1.27412 4.657 
-0.61642 1.2763 4.665 
-0.551715 1.27466 4.659 
-0.474714 1.27384 4.656 
0.328216 1.26673 4.63 
0.427797 1.26071 4.608 
0.531577 1.267 4.631 
0.730423 1.25934 4.603 
0.853547 1.25469 4.586 
0.931876 1.25852 4.6 
1.1653 1.25168 4.575 
1.68841 1.24867 4.564 
2.28444 1.24594 4.554 
-2.04726 1.28745 4.659 
-1.89671 1.28938 4.666 
-1.82603 1.28468 4.649 
-1.73861 1.28606 4.654 
-1.65526 1.29076 4.671 
-1.58266 1.28385 4.646 
-1.49601 1.28606 4.654 
-1.43432 1.288 4.661 
-1.34394 1.28717 4.658 
-1.23477 1.27998 4.632 
-1.1463 1.28054 4.634 
-1.04166 1.27694 4.621 
-0.941052 1.27805 4.625 
-0.865291 1.2786 4.627 
-0.798872 1.2739 4.61 
-0.73994 1.28137 4.637 
-0.598574 1.27833 4.626 
-0.509842 1.2786 4.627 
-0.419978 1.27556 4.616 
0.186653 1.267 4.585 
0.361182 1.26147 4.565 
0.488345 1.26644 4.583 
0.551576 1.26727 4.586 
0.713584 1.26451 4.576 
0.822061 1.2576 4.551 
0.919518 1.25428 4.539 
1.21072 1.25926 4.557 
1.69124 1.25401 4.538 
1.95952 1.25042 4.525 
2.45325 1.24268 4.497 
-2.04854 1.29297 4.633 
-1.9583 1.29213 4.63 
-1.79355 1.29241 4.631 
-1.63435 1.28711 4.612 
-1.3407 1.2846 4.603 
-1.22784 1.28544 4.606 
-1.07199 1.28041 4.588 
-0.993638 1.27679 4.575 
-0.870965 1.28097 4.59 
-0.718279 1.27818 4.58 
-0.351248 1.26869 4.546 
0.234645 1.26702 4.54 
0.481313 1.2606 4.517 
0.583668 1.26758 4.542 
0.739428 1.25697 4.504 
0.801569 1.25753 4.506 
0.878078 1.26088 4.518 
0.962284 1.25753 4.506 
1.47954 1.25585 4.5 
2.1761 1.24469 4.46 
-2.18872 1.29836 4.607 
-1.93503 1.28934 4.575 
-1.6862 1.29103 4.581 
-1.5145 1.28398 4.556 
-1.32526 1.28229 4.55 
-1.18977 1.28426 4.557 
-1.07417 1.2806 4.544 
-0.97551 1.28201 4.549 
-0.875665 1.28201 4.549 
-0.6102 1.27496 4.524 
-0.48522 1.27271 4.516 
0.380139 1.26623 4.493 
0.489006 1.26087 4.474 
0.745442 1.25862 4.466 
0.905743 1.26003 4.471 
1.03951 1.25862 4.466 
1.45676 1.25918 4.468 
1.84158 1.25411 4.45 
2.3332 1.24932 4.433 
-2.29896 1.29477 4.55 
-2.0395 1.29648 4.556 
-1.88784 1.29534 4.552 
-1.65354 1.28795 4.526 
-1.50852 1.29136 4.538 
-1.38188 1.28937 4.531 
-1.21327 1.28197 4.505 
-1.07803 1.28282 4.508 
-1.01529 1.28168 4.504 
-0.91338 1.27742 4.489 
-0.719036 1.28225 4.506 
-0.566758 1.27343 4.475 
-0.508081 1.28026 4.499 
-0.332813 1.27087 4.466 
0.218372 1.26973 4.462 
0.448138 1.26177 4.434 
0.630331 1.2612 4.432 
0.715448 1.2612 4.432 
0.851311 1.26433 4.443 
0.923826 1.26347 4.44 
1.0447 1.26233 4.436 
1.48187 1.25124 4.397 
1.76978 1.2501 4.393 
2.2288 1.25067 4.395 
-2.08851 1.29289 4.5 
-1.86586 1.29261 4.499 
-1.72854 1.29146 4.495 
-1.53156 1.29174 4.496 
-1.31158 1.28169 4.461 
-1.16575 1.28284 4.465 
-1.0208 1.28542 4.474 
-0.932579 1.28226 4.463 
-0.796636 1.28025 4.456 
-0.697107 1.27709 4.445 
-0.624918 1.2791 4.452 
-0.476517 1.27422 4.435 
-0.354919 1.2745 4.436 
0.264583 1.26876 4.416 
0.421036 1.2656 4.405 
0.626206 1.26502 4.403 
0.783247 1.26502 4.403 
0.93922 1.26359 4.398 
0.999097 1.26301 4.396 
1.21536 1.26215 4.393 
1.47749 1.25956 4.384 
1.87998 1.25526 4.369 
2.34487 1.2475 4.342 
-2.07644 1.2977 4.474 
-1.88639 1.29364 4.46 
-1.42722 1.28784 4.44 
-1.1893 1.28087 4.416 
-1.08442 1.28581 4.433 
-0.981778 1.27884 4.409 
-0.823775 1.27768 4.405 
-0.604584 1.2742 4.393 
-0.484939 1.27652 4.401 
0.225704 1.26666 4.367 
0.452206 1.26347 4.356 
0.548444 1.26492 4.361 
0.644753 1.26608 4.365 
0.882851 1.26405 4.358 
1.0038 1.26579 4.364 
1.27537 1.26202 4.351 
1.61298 1.25535 4.328 
2.02296 1.25187 4.316 
2.35233 1.25071 4.312 
-2.02092 1.29797 4.433 
-1.70989 1.2927 4.415 
-1.55532 1.28508 4.389 
-1.4336 1.28391 4.385 
-1.31569 1.28626 4.393 
-1.13645 1.28801 4.399 
-1.03611 1.28333 4.383 
-0.942057 1.28626 4.393 
-0.55422 1.28128 4.376 
-0.395413 1.27249 4.346 
0.308155 1.27279 4.347 
0.438335 1.26986 4.337 
0.543539 1.26547 4.322 
0.663956 1.26898 4.334 
0.756805 1.26517 4.321 
0.882488 1.25844 4.298 
0.945829 1.2643 4.318 
1.09933 1.26371 4.316 
1.38064 1.26108 4.307 
1.49846 1.26078 4.306 
1.79178 1.25112 4.273 
2.14348 1.25112 4.273 
-1.99722 1.29476 4.381 
-1.8813 1.29772 4.391 
-1.57985 1.28767 4.357 
-1.33247 1.29122 4.369 
-1.15879 1.28471 4.347 
-1.02429 1.28058 4.333 
-0.939558 1.27851 4.326 
-0.513347 1.28117 4.335 
-0.356828 1.27437 4.312 
0.315369 1.2658 4.283 
0.480216 1.26669 4.286 
0.584134 1.26255 4.272 
0.657675 1.26875 4.293 
0.796966 1.2655 4.282 
0.888038 1.26137 4.268 
0.948139 1.26343 4.275 
1.08608 1.26018 4.264 
1.23759 1.25959 4.262 
1.37855 1.26018 4.264 
1.43367 1.25723 4.254 
1.5083 1.26107 4.267 
1.79675 1.25811 4.257 
2.36618 1.25043 4.231 
-2.03384 1.29187 4.331 
-1.67086 1.29604 4.345 
-1.36115 1.28501 4.308 
-1.10444 1.28888 4.321 
-0.924901 1.2865 4.313 
-0.435665 1.27457 4.273 
0.48681 1.26502 4.241 
0.651853 1.2692 4.255 
0.800216 1.26383 4.237 
0.906332 1.26592 4.244 
0.965006 1.26651 4.246 
1.04606 1.26592 4.244 
1.19291 1.26114 4.228 
1.25833 1.25697 4.214 
1.36045 1.25518 4.208 
1.46922 1.25935 4.222 
1.75423 1.25607 4.211 
-2.01928 1.29442 4.3 
-1.90643 1.2899 4.285 
-1.61967 1.29562 4.304 
-1.09192 1.28599 4.272 
-0.912035 1.28027 4.253 
0.183068 1.26823 4.213 
0.665997 1.26341 4.197 
0.900139 1.26883 4.215 
1.02564 1.26672 4.208 
1.09231 1.26371 4.198 
1.25475 1.26492 4.202 
1.32329 1.26432 4.2 
1.3848 1.25739 4.177 
1.51557 1.26131 4.19 
1.87129 1.25318 4.163 
-2.20022 1.29467 4.262 
-1.97619 1.29346 4.258 
-1.7268 1.29042 4.248 
-1.40913 1.28769 4.239 
-1.32521 1.28526 4.231 
-1.0205 1.28161 4.219 
-0.580224 1.2807 4.216 
-0.382675 1.27766 4.206 
0.547174 1.26642 4.169 
0.693865 1.26278 4.157 
0.912096 1.2649 4.164 
1.05603 1.25943 4.146 
1.29365 1.25822 4.142 
1.42311 1.26217 4.155 
1.50702 1.25609 4.135 
1.66947 1.25883 4.144 
1.85736 1.25518 4.132 
2.20562 1.24698 4.105 
-2.10842 1.30024 4.242 
-1.78742 1.29533 4.226 
-1.56938 1.28767 4.201 
-1.41853 1.28675 4.198 
-0.745863 1.27878 4.172 
0.40913 1.27541 4.161 
0.497934 1.26897 4.14 
0.644035 1.26591 4.13 
0.84861 1.26683 4.133 
1.01722 1.26499 4.127 
1.16131 1.26161 4.116 
1.30653 1.26008 4.111 
1.37253 1.25855 4.106 
1.46693 1.26223 4.118 
1.59939 1.25978 4.11 
1.79929 1.25763 4.103 
2.06189 1.25303 4.088 
-1.99536 1.29888 4.2 
-1.50887 1.29672 4.193 
-1.13014 1.28466 4.154 
0.381192 1.26981 4.106 
0.626729 1.26518 4.091 
0.85121 1.26518 4.091 
0.985658 1.26487 4.09 
1.18474 1.26177 4.08 
1.30691 1.26085 4.077 
1.37571 1.26239 4.082 
1.4303 1.26116 4.078 
1.49045 1.25528 4.059 
1.69953 1.25342 4.053 
1.86436 1.25961 4.073 
2.03513 1.25466 4.057 
2.19042 1.25435 4.056 
-1.86779 1.29387 4.147 
-1.53116 1.28826 4.129 
-1.33143 1.29231 4.142 
-0.665336 1.2789 4.099 
0.410844 1.26829 4.065 
0.890192 1.26798 4.064 
1.03412 1.26673 4.06 
1.2331 1.26517 4.055 
1.30775 1.26205 4.045 
1.4045 1.25924 4.036 
1.48164 1.25893 4.035 
1.57098 1.25955 4.037 
1.67356 1.26174 4.044 
1.8359 1.25893 4.035 
2.0466 1.25238 4.014 
-1.98669 1.30116 4.134 
-1.50448 1.29612 4.118 
-1.23949 1.29077 4.101 
0.385098 1.26811 4.029 
0.550497 1.26717 4.026 
0.879897 1.26433 4.017 
1.00287 1.26654 4.024 
1.12096 1.26276 4.012 
1.2543 1.26402 4.016 
1.35077 1.2615 4.008 
1.40996 1.26528 4.02 
1.55581 1.25835 3.998 
1.72378 1.26087 4.006 
1.96868 1.25583 3.99 
-1.98354 1.30298 4.104 
-1.5528 1.29123 4.067 
-1.24876 1.28837 4.058 
0.328272 1.27313 4.01 
0.557916 1.26996 4 
0.89408 1.26424 3.982 
1.03975 1.26869 3.996 
1.09457 1.26869 3.996 
1.25618 1.26583 3.987 
1.32974 1.26297 3.978 
1.39593 1.26361 3.98 
1.48932 1.25948 3.967 
1.57064 1.26361 3.98 
1.63205 1.26043 3.97 
1.77409 1.26075 3.971 
1.96772 1.25916 3.966 
-1.9111 1.29566 4.046 
-1.64021 1.29214 4.035 
-1.43809 1.28958 4.027 
0.466125 1.27004 3.966 
0.562633 1.26684 3.956 
0.736105 1.26652 3.955 
0.943464 1.26812 3.96 
1.00916 1.26876 3.962 
1.14496 1.26268 3.943 
1.22285 1.26492 3.95 
1.28592 1.263 3.944 
1.33934 1.26236 3.942 
1.392 1.26108 3.938 
1.44786 1.26268 3.943 
1.58165 1.25723 3.926 
1.66084 1.26012 3.935 
1.75488 1.25787 3.928 
2.11805 1.25595 3.922 
-1.9271 1.29513 4.01 
-1.58684 1.29578 4.012 
-0.403344 1.27769 3.956 
0.269379 1.27673 3.953 
0.504895 1.26897 3.929 
0.623153 1.26833 3.927 
0.891824 1.26736 3.924 
0.967924 1.26833 3.927 
1.06299 1.26607 3.92 
1.23224 1.26316 3.911 
1.29049 1.26768 3.925 
1.36169 1.26381 3.913 
1.43905 1.26574 3.919 
1.63092 1.26445 3.915 
1.74058 1.25832 3.896 
2.0805 1.25702 3.892 
-1.84577 1.29539 3.977 
-0.389415 1.27845 3.925 
0.513049 1.27324 3.909 
0.670989 1.2677 3.892 
0.767092 1.2677 3.892 
0.851202 1.26575 3.886 
0.904045 1.2651 3.884 
1.0407 1.26282 3.877 
1.23597 1.26672 3.889 
1.33269 1.26738 3.891 
1.42399 1.26314 3.878 
1.55949 1.26086 3.871 
1.66784 1.26249 3.876 
1.8781 1.26086 3.871 
2.264 1.25109 3.841 
0.263927 1.27214 3.873 
0.658106 1.27411 3.879 
0.782371 1.26853 3.862 
0.928061 1.26491 3.851 
1.06735 1.26721 3.858 
1.17949 1.26261 3.844 
1.25788 1.26721 3.858 
1.43902 1.259 3.833 
1.53646 1.2613 3.84 
1.61653 1.25802 3.83 
1.7294 1.25604 3.824 
1.85384 1.25506 3.821 
1.94481 1.25966 3.835 
0.272427 1.27283 3.843 
0.597252 1.26852 3.83 
0.826697 1.26587 3.822 
0.941304 1.26488 3.819 
1.04499 1.26355 3.815 
1.09991 1.26654 3.824 
1.18996 1.2619 3.81 
1.28194 1.27018 3.835 
1.36587 1.26024 3.805 
1.54253 1.25958 3.803 
1.72624 1.2566 3.794 
1.80856 1.25594 3.792 
1.95679 1.25759 3.797 
-0.549119 1.28137 3.837 
0.384667 1.27102 3.806 
0.490117 1.27369 3.814 
0.572475 1.27068 3.805 
0.655473 1.26968 3.802 
0.851195 1.26601 3.791 
0.954953 1.26567 3.79 
1.00854 1.26768 3.796 
1.08315 1.26968 3.802 
1.15222 1.26534 3.789 
1.22304 1.26334 3.783 
1.27966 1.26801 3.797 
1.36192 1.26701 3.794 
1.45407 1.26567 3.79 
1.61488 1.26133 3.777 
1.87246 1.26033 3.774 
0.133563 1.27674 3.792 
0.413589 1.27405 3.784 
0.516313 1.27136 3.776 
0.56736 1.26967 3.771 
0.714472 1.27371 3.783 
0.773666 1.26866 3.768 
0.885969 1.26664 3.762 
0.97163 1.27068 3.774 
1.043 1.26934 3.77 
1.0924 1.26664 3.762 
1.18308 1.26429 3.755 
1.23295 1.2626 3.75 
1.34118 1.26765 3.765 
1.43604 1.26025 3.743 
1.55314 1.26361 3.753 
1.63246 1.26126 3.746 
1.82041 1.25621 3.731 
-0.426431 1.28172 3.776 
0.23547 1.27561 3.758 
0.461807 1.27425 3.754 
0.61515 1.27187 3.747 
0.696275 1.26984 3.741 
0.748194 1.27086 3.744 
0.864407 1.27561 3.758 
0.913034 1.27153 3.746 
1.00312 1.26848 3.737 
1.06634 1.27052 3.743 
1.15536 1.26678 3.732 
1.20397 1.26407 3.724 
1.29019 1.26848 3.737 
1.3554 1.26237 3.719 
1.42491 1.26067 3.714 
1.47626 1.26101 3.715 
1.59814 1.26067 3.714 
1.68711 1.25864 3.708 
1.86872 1.25762 3.705 
-0.598399 1.28318 3.75 
0.141537 1.27565 3.728 
0.386182 1.27291 3.72 
0.538984 1.27223 3.718 
0.610389 1.27223 3.718 
0.681244 1.2712 3.715 
0.753604 1.27291 3.72 
0.831661 1.26744 3.704 
0.885093 1.2712 3.715 
0.974985 1.26881 3.708 
1.04592 1.26847 3.707 
1.1153 1.26641 3.701 
1.20734 1.2671 3.703 
1.28409 1.26265 3.69 
1.35863 1.26607 3.7 
1.42544 1.26231 3.689 
1.49832 1.26402 3.694 
1.58738 1.26231 3.689 
1.65302 1.26607 3.7 
1.72439 1.25889 3.679 
1.90555 1.25854 3.678 
-0.440046 1.28174 3.716 
0.151317 1.28209 3.717 
0.231898 1.27657 3.701 
0.32311 1.27588 3.699 
0.423907 1.27381 3.693 
0.494296 1.27243 3.689 
0.545345 1.27346 3.692 
0.597606 1.27691 3.702 
0.647514 1.27519 3.697 
0.697096 1.27312 3.691 
0.777266 1.27174 3.687 
0.86972 1.27381 3.693 
0.919882 1.27312 3.691 
0.968937 1.27105 3.685 
1.0181 1.26932 3.68 
1.09649 1.26656 3.672 
1.15123 1.27139 3.686 
1.22202 1.27139 3.686 
1.28825 1.26691 3.673 
1.34872 1.26691 3.673 
1.41733 1.26518 3.668 
1.51879 1.26587 3.67 
1.59367 1.26139 3.657 
1.65704 1.26381 3.664 
1.87897 1.2576 3.646 
-0.599436 1.28394 3.693 
-0.550855 1.28881 3.707 
-0.447454 1.28394 3.693 
0.119327 1.27733 3.674 
0.169634 1.27664 3.672 
0.260092 1.2756 3.669 
0.351453 1.27838 3.677 
0.41019 1.27281 3.661 
0.471869 1.27664 3.672 
0.521672 1.27525 3.668 
0.572146 1.2756 3.669 
0.62112 1.27281 3.661 
0.671158 1.27247 3.66 
0.771574 1.27247 3.66 
0.853536 1.2749 3.667 
0.909165 1.2683 3.648 
0.961312 1.27108 3.656 
1.01898 1.26795 3.647 
1.07961 1.26864 3.649 
1.13338 1.27281 3.661 
1.1958 1.26447 3.637 
1.25186 1.27073 3.655 
1.32698 1.26586 3.641 
1.3946 1.26378 3.635 
1.44526 1.26447 3.637 
1.56242 1.26238 3.631 
1.80052 1.26169 3.629 
-0.878591 1.28741 3.674 
-0.546843 1.28952 3.68 
-0.446727 1.29197 3.687 
0.12835 1.2769 3.644 
0.178192 1.27585 3.641 
0.228389 1.27725 3.645 
0.338672 1.2783 3.648 
0.388929 1.279 3.65 
0.457519 1.2748 3.638 
0.508401 1.27725 3.645 
0.558556 1.2776 3.646 
0.606903 1.2741 3.636 
0.66529 1.2713 3.628 
0.715256 1.27165 3.629 
0.765671 1.2727 3.632 
0.838875 1.27795 3.647 
0.90443 1.27165 3.629 
0.965763 1.27375 3.635 
1.01311 1.27059 3.626 
1.08544 1.27375 3.635 
1.15849 1.26639 3.614 
1.21275 1.2713 3.628 
1.30469 1.26394 3.607 
1.39038 1.26989 3.624 
1.45313 1.26394 3.607 
1.5047 1.26569 3.612 
1.65609 1.26779 3.618 
1.8119 1.26569 3.612 
-0.862128 1.28796 3.647 
-0.52064 1.28478 3.638 
-0.43223 1.28902 3.65 
0.12747 1.27807 3.619 
0.176968 1.27701 3.616 
0.226572 1.27701 3.616 
0.315598 1.27595 3.613 
0.364858 1.27489 3.61 
0.424049 1.27419 3.608 
0.495119 1.27878 3.621 
0.54434 1.27772 3.618 
0.594629 1.27913 3.622 
0.641469 1.27348 3.606 
0.702579 1.27666 3.615 
0.752585 1.27736 3.617 
0.801094 1.2756 3.612 
0.870704 1.27595 3.613 
0.920777 1.27666 3.615 
0.966073 1.27101 3.599 
1.01827 1.27454 3.609 
1.07588 1.27242 3.603 
1.125 1.27207 3.602 
1.17637 1.27419 3.608 
1.21771 1.26571 3.584 
1.26722 1.26606 3.585 
1.33757 1.26748 3.589 
1.38216 1.26324 3.577 
1.44306 1.265 3.582 
1.50412 1.26677 3.587 
1.63479 1.26889 3.593 
1.79936 1.26677 3.587 
-0.865438 1.288 3.619 
-0.646462 1.28693 3.616 
-0.596693 1.28658 3.615 
-0.476751 1.28409 3.608 
-0.418167 1.28658 3.615 
-0.357964 1.28409 3.608 
-0.309068 1.28658 3.615 
0.0968995 1.27768 3.59 
0.147083 1.28586 3.613 
0.19632 1.28373 3.607 
0.274802 1.28053 3.598 
0.323348 1.27732 3.589 
0.373205 1.27946 3.595 
0.440771 1.27519 3.583 
0.491017 1.27803 3.591 
0.539225 1.27554 3.584 
0.590689 1.28053 3.598 
0.638623 1.27768 3.59 
0.688062 1.27803 3.591 
0.748216 1.27981 3.596 
0.81455 1.27554 3.584 
0.863234 1.27483 3.582 
0.908551 1.26949 3.567 
0.986842 1.26949 3.567 
1.03955 1.27412 3.58 
1.08805 1.27341 3.578 
1.15483 1.27127 3.572 
1.20686 1.27448 3.581 
1.32365 1.27341 3.578 
1.36506 1.26629 3.558 
1.43541 1.26807 3.563 
1.48637 1.26985 3.568 
1.59619 1.2638 3.551 
1.73988 1.26202 3.546 
2.04608 1.26487 3.554 
-0.631084 1.28574 3.585 
-0.582717 1.28753 3.59 
-0.49297 1.28466 3.582 
-0.434247 1.28538 3.584 
-0.385404 1.28645 3.587 
-0.326903 1.2886 3.593 
-0.267309 1.28645 3.587 
0.14574 1.28394 3.58 
0.194742 1.28322 3.578 
0.27274 1.28071 3.571 
0.320916 1.27749 3.562 
0.389543 1.2782 3.564 
0.438434 1.2782 3.564 
0.486641 1.27641 3.559 
0.534862 1.27498 3.555 
0.585763 1.27964 3.568 
0.634709 1.27964 3.568 
0.683272 1.27892 3.566 
0.731163 1.27713 3.561 
0.776947 1.27211 3.547 
0.827234 1.27462 3.554 
0.878206 1.27785 3.563 
0.941586 1.27103 3.544 
1.03374 1.27677 3.56 
1.08621 1.2696 3.54 
1.13509 1.26995 3.541 
1.22632 1.2739 3.552 
1.31329 1.27318 3.55 
1.35278 1.26458 3.526 
1.40354 1.26673 3.532 
1.45651 1.27067 3.543 
1.50426 1.26995 3.541 
1.57886 1.26744 3.534 
1.84563 1.26422 3.525 
-1.16027 1.2934 3.579 
-0.902694 1.29015 3.57 
-0.647125 1.28834 3.565 
-0.58877 1.28907 3.567 
-0.53893 1.2869 3.561 
-0.440611 1.28509 3.556 
-0.372003 1.28401 3.553 
-0.303682 1.28365 3.552 
-0.235597 1.28437 3.554 
0.173493 1.28112 3.545 
0.222374 1.28256 3.549 
0.280559 1.28148 3.546 
0.328646 1.27931 3.54 
0.387576 1.28148 3.546 
0.446326 1.28256 3.549 
0.501904 1.27533 3.529 
0.551406 1.27786 3.536 
0.599743 1.2775 3.535 
0.668955 1.28003 3.542 
0.726236 1.27822 3.537 
0.773661 1.27642 3.532 
0.822113 1.27642 3.532 
0.880006 1.27606 3.531 
0.925815 1.27244 3.521 
0.997668 1.27786 3.536 
1.06498 1.27714 3.534 
1.11125 1.27461 3.527 
1.17064 1.27606 3.531 
1.265 1.27353 3.524 
1.32511 1.2663 3.504 
1.38793 1.271 3.517 
1.44089 1.26666 3.505 
1.53924 1.26847 3.51 
1.59979 1.26305 3.495 
1.86347 1.2663 3.504 
-1.12165 1.29266 3.55 
-0.83778 1.29048 3.544 
-0.731648 1.29193 3.548 
-0.585634 1.29193 3.548 
-0.515598 1.2872 3.535 
-0.437885 1.28684 3.534 
-0.381321 1.2923 3.549 
-0.311574 1.28574 3.531 
-0.253807 1.28756 3.536 
0.133868 1.28392 3.526 
0.181927 1.28174 3.52 
0.230869 1.28538 3.53 
0.278977 1.28392 3.526 
0.326882 1.2821 3.521 
0.375396 1.28283 3.523 
0.423364 1.28174 3.52 
0.470311 1.2781 3.51 
0.518757 1.27883 3.512 
0.567419 1.27992 3.515 
0.616513 1.28174 3.52 
0.672159 1.27737 3.508 
0.739952 1.2781 3.51 
0.796596 1.27628 3.505 
0.844436 1.27591 3.504 
0.911991 1.27628 3.505 
0.960073 1.27628 3.505 
1.04483 1.27409 3.499 
1.10463 1.27664 3.506 
1.22231 1.26899 3.485 
1.27522 1.27409 3.499 
1.31453 1.26572 3.476 
1.38406 1.26827 3.483 
1.47176 1.26972 3.487 
1.53343 1.26535 3.475 
1.69843 1.26754 3.481 
1.89922 1.26135 3.464 
-1.02526 1.2914 3.52 
-0.765373 1.29286 3.524 
-0.716217 1.2914 3.52 
-0.589159 1.28809 3.511 
-0.503037 1.28956 3.515 
-0.454301 1.28809 3.511 
-0.405327 1.28553 3.504 
-0.357259 1.28553 3.504 
-0.309809 1.28809 3.511 
-0.261347 1.28663 3.507 
0.122961 1.28076 3.491 
0.181049 1.28516 3.503 
0.229168 1.28553 3.504 
0.285867 1.28112 3.492 
0.343351 1.28112 3.492 
0.39103 1.28039 3.49 
0.437523 1.27635 3.479 
0.506077 1.28076 3.491 
0.583034 1.28149 3.493 
0.649559 1.28039 3.49 
0.696436 1.27856 3.485 
0.754021 1.27892 3.486 
0.801612 1.27856 3.485 
0.934667 1.27745 3.482 
1.02783 1.27452 3.474 
1.2044 1.26975 3.461 
1.28296 1.27232 3.468 
1.32439 1.26645 3.452 
1.38642 1.27122 3.465 
1.46163 1.27048 3.463 
1.54855 1.26388 3.445 
-1.19228 1.29366 3.5 
-0.911452 1.29033 3.491 
-0.777361 1.29033 3.491 
-0.728427 1.28849 3.486 
-0.680997 1.28923 3.488 
-0.558346 1.29329 3.499 
-0.510347 1.29329 3.499 
-0.460762 1.28886 3.487 
-0.412691 1.28812 3.485 
-0.365093 1.28886 3.487 
-0.316712 1.28664 3.481 
-0.269346 1.28849 3.486 
0.12208 1.28109 3.466 
0.207544 1.28035 3.464 
0.264491 1.27999 3.463 
0.313258 1.28516 3.477 
0.359709 1.28072 3.465 
0.406772 1.27925 3.461 
0.503613 1.28405 3.474 
0.57836 1.28072 3.465 
0.625893 1.28072 3.465 
0.692639 1.28109 3.466 
0.748613 1.27925 3.461 
0.803026 1.27518 3.45 
0.88873 1.27592 3.452 
1.01866 1.27259 3.443 
1.24573 1.27296 3.444 
1.2941 1.27407 3.447 
1.38182 1.26779 3.43 
1.43096 1.26964 3.435 
1.48195 1.27296 3.444 
1.56381 1.27038 3.437 
-1.22295 1.29507 3.478 
-1.05452 1.29917 3.489 
-1.00175 1.29284 3.472 
-0.879684 1.29544 3.479 
-0.761625 1.28949 3.463 
-0.685617 1.28949 3.463 
-0.619645 1.2906 3.466 
-0.554836 1.2947 3.477 
-0.478107 1.29358 3.474 
-0.429831 1.29172 3.469 
-0.381472 1.28911 3.462 
-0.314256 1.28613 3.454 
-0.257919 1.28874 3.461 
0.169236 1.28762 3.458 
0.215482 1.28055 3.439 
0.271539 1.27794 3.432 
0.329374 1.28316 3.446 
0.376974 1.28427 3.449 
0.431863 1.27869 3.434 
0.499698 1.28353 3.447 
0.575022 1.28278 3.445 
0.619932 1.27794 3.432 
0.706935 1.28204 3.443 
0.752633 1.27943 3.436 
0.796975 1.27496 3.424 
0.921782 1.27869 3.434 
0.995412 1.27645 3.428 
1.04365 1.27794 3.432 
1.16334 1.27496 3.424 
1.21102 1.27571 3.426 
1.28547 1.27496 3.424 
1.35044 1.27422 3.422 
1.41409 1.27236 3.417 
1.47841 1.27124 3.414 
1.58242 1.26454 3.396 
-1.13903 1.29599 3.455 
-1.04787 1.30049 3.467 
-0.948074 1.29411 3.45 
-0.894124 1.29824 3.461 
-0.834973 1.29486 3.452 
-0.709171 1.28998 3.439 
-0.661802 1.28961 3.438 
-0.53965 1.29073 3.441 
-0.465069 1.29336 3.448 
-0.4168 1.29036 3.44 
-0.369502 1.28998 3.439 
-0.322326 1.28998 3.439 
0.120601 1.28436 3.424 
0.195468 1.28248 3.419 
0.243291 1.28736 3.432 
0.290287 1.28698 3.431 
0.355972 1.28623 3.429 
0.411096 1.28211 3.418 
0.458654 1.28398 3.423 
0.56918 1.27911 3.41 
0.627331 1.28323 3.421 
0.719714 1.28061 3.414 
0.804249 1.28098 3.415 
0.915877 1.27986 3.412 
0.961272 1.27798 3.407 
1.00475 1.27386 3.396 
1.07376 1.27836 3.408 
1.1362 1.27498 3.399 
1.19145 1.27423 3.397 
1.27533 1.27423 3.397 
1.36893 1.27461 3.398 
1.45958 1.27235 3.392 
1.56011 1.27085 3.388 
1.62868 1.26635 3.376 
-1.19527 1.29451 3.426 
-1.12072 1.29526 3.428 
-1.04945 1.30018 3.441 
-1.00195 1.2998 3.44 
-0.949213 1.29224 3.42 
-0.845257 1.29111 3.417 
-0.799317 1.29262 3.421 
-0.732973 1.29149 3.418 
-0.678489 1.29489 3.427 
-0.575064 1.29489 3.427 
-0.527128 1.29262 3.421 
-0.478093 1.28695 3.406 
-0.434029 1.29489 3.427 
-0.386227 1.29224 3.42 
-0.329639 1.29111 3.417 
-0.27299 1.28922 3.412 
0.119932 1.28657 3.405 
0.184999 1.28431 3.399 
0.260214 1.28733 3.407 
0.34424 1.28695 3.406 
0.408089 1.28204 3.393 
0.4545 1.28166 3.392 
0.566009 1.28128 3.391 
0.696874 1.28242 3.394 
0.879987 1.27788 3.382 
0.946615 1.28015 3.388 
0.987816 1.27335 3.37 
1.03865 1.27902 3.385 
1.10333 1.27864 3.384 
1.17517 1.27599 3.377 
1.32341 1.27599 3.377 
1.43702 1.26995 3.361 
1.51169 1.2707 3.363 
1.61462 1.27184 3.366 
1.84591 1.26579 3.35 
-1.18689 1.29477 3.402 
-1.06493 1.29401 3.4 
-0.992925 1.29744 3.409 
-0.93351 1.29287 3.397 
-0.868781 1.29363 3.399 
-0.823847 1.2963 3.406 
-0.775298 1.29325 3.398 
-0.709412 1.29211 3.395 
-0.664206 1.29477 3.402 
-0.58711 1.28945 3.388 
-0.505979 1.29592 3.405 
-0.439679 1.29325 3.398 
-0.38442 1.29553 3.404 
-0.318858 1.29477 3.402 
-0.252852 1.29135 3.393 
0.137842 1.28868 3.386 
0.202871 1.28868 3.386 
0.34964 1.28183 3.368 
0.414569 1.28259 3.37 
0.459841 1.27993 3.363 
0.563171 1.28412 3.374 
0.729363 1.28336 3.372 
0.883744 1.27917 3.361 
0.938233 1.27803 3.358 
0.984592 1.27841 3.359 
1.058 1.27803 3.358 
1.10407 1.27803 3.358 
1.28219 1.27194 3.342 
1.3408 1.27536 3.351 
1.46338 1.27003 3.337 
1.58335 1.2708 3.339 
-1.28615 1.30066 3.393 
-1.19095 1.29836 3.387 
-1.14348 1.29721 3.384 
-1.0525 1.29951 3.39 
-0.992282 1.29376 3.375 
-0.945983 1.29376 3.375 
-0.872165 1.29414 3.376 
-0.825119 1.29299 3.373 
-0.770963 1.29529 3.379 
-0.713222 1.29146 3.369 
-0.669184 1.29567 3.38 
-0.621896 1.29376 3.375 
-0.491094 1.29069 3.367 
-0.418432 1.29452 3.377 
-0.362733 1.29414 3.376 
0.08157 1.28954 3.364 
0.256471 1.28724 3.358 
0.421802 1.28571 3.354 
0.466139 1.28111 3.342 
0.550467 1.28532 3.353 
0.896281 1.27996 3.339 
0.939828 1.27689 3.331 
1.02392 1.27919 3.337 
1.15986 1.27766 3.333 
1.26921 1.27727 3.332 
1.35614 1.27306 3.321 
1.52419 1.26884 3.31 
1.62408 1.26884 3.31 
-1.29285 1.298 3.362 
-1.19103 1.29761 3.361 
-1.1497 1.30302 3.375 
-1.07116 1.29761 3.361 
-1.02006 1.30302 3.375 
-0.948167 1.29336 3.35 
-0.868031 1.29723 3.36 
-0.820226 1.29452 3.353 
-0.766171 1.29645 3.358 
-0.710047 1.29491 3.354 
-0.66463 1.29607 3.357 
-0.618948 1.29684 3.359 
-0.53441 1.29298 3.349 
-0.468969 1.28989 3.341 
-0.423137 1.28989 3.341 
-0.377983 1.29221 3.347 
-0.332664 1.29452 3.353 
0.172676 1.28989 3.341 
0.27326 1.28873 3.338 
0.345902 1.28642 3.332 
0.464744 1.28642 3.332 
0.591838 1.28448 3.327 
1.0698 1.27754 3.309 
1.18854 1.27831 3.311 
1.32583 1.27059 3.291 
1.38545 1.2756 3.304 
1.4586 1.26827 3.285 
1.56011 1.2702 3.29 
1.62835 1.26711 3.282 
2.00119 1.26943 3.288 
-1.23635 1.29633 3.334 
-1.16526 1.29867 3.34 
-1.07955 1.29478 3.33 
-1.00002 1.29828 3.339 
-0.951643 1.29478 3.33 
-0.911131 1.30217 3.349 
-0.852934 1.2975 3.337 
-0.807883 1.29867 3.34 
-0.760696 1.29633 3.334 
-0.715389 1.29711 3.336 
-0.649953 1.29439 3.329 
-0.596941 1.29828 3.339 
-0.523026 1.29672 3.335 
-0.43962 1.29361 3.327 
-0.384621 1.29284 3.325 
-0.338601 1.29128 3.321 
0.126009 1.2905 3.319 
0.433907 1.28545 3.306 
0.561061 1.28584 3.307 
1.06139 1.2765 3.283 
1.21674 1.27884 3.289 
1.37707 1.27689 3.284 
1.44032 1.26912 3.264 
1.50162 1.26795 3.261 
1.60899 1.26795 3.261 
-1.32895 1.29765 3.314 
-1.24026 1.3 3.32 
-1.17863 1.30235 3.326 
-1.09584 1.30157 3.324 
-0.982252 1.29608 3.31 
-0.932249 1.30235 3.326 
-0.864717 1.29687 3.312 
-0.820768 1.29922 3.318 
-0.761992 1.29217 3.3 
-0.710028 1.29648 3.311 
-0.644877 1.29334 3.303 
-0.582675 1.29608 3.31 
-0.53532 1.29139 3.298 
-0.417565 1.29099 3.297 
-0.373014 1.29334 3.303 
-0.327902 1.29413 3.305 
-0.282393 1.29334 3.303 
0.233083 1.28747 3.288 
0.439493 1.28434 3.28 
0.762759 1.28316 3.277 
1.05525 1.27807 3.264 
1.20453 1.27494 3.256 
1.38956 1.27259 3.25 
1.46089 1.27259 3.25 
1.58021 1.27533 3.257 
1.63116 1.26632 3.234 
1.7608 1.27024 3.244 
-1.30799 1.30398 3.307 
-1.23205 1.30043 3.298 
-1.18168 1.30477 3.309 
-1.12142 1.29807 3.292 
-1.04662 1.29491 3.284 
-0.988339 1.30122 3.3 
-0.896984 1.30004 3.297 
-0.853047 1.30201 3.302 
-0.807261 1.30122 3.3 
-0.750428 1.29688 3.289 
-0.696074 1.29649 3.288 
-0.623148 1.29491 3.284 
-0.578274 1.29531 3.285 
-0.532399 1.29334 3.28 
-0.396929 1.29176 3.276 
-0.325521 1.29373 3.281 
-0.226778 1.29531 3.285 
0.169213 1.29097 3.274 
0.240779 1.28939 3.27 
0.321523 1.28939 3.27 
0.436813 1.28545 3.26 
0.986788 1.27954 3.245 
1.21789 1.27914 3.244 
1.43196 1.27165 3.225 
1.48123 1.27599 3.236 
1.5961 1.26849 3.217 
1.81111 1.26455 3.207 
-1.30166 1.3067 3.291 
-1.22047 1.29717 3.267 
-1.15192 1.30075 3.276 
-1.09498 1.29717 3.267 
-1.03255 1.29757 3.268 
-0.989232 1.29956 3.273 
-0.870629 1.29678 3.266 
-0.781023 1.29678 3.266 
-0.729486 1.30075 3.276 
-0.681829 1.29559 3.263 
-0.602917 1.29916 3.272 
-0.55752 1.29797 3.269 
-0.421435 1.2932 3.257 
-0.377681 1.29638 3.265 
-0.296423 1.2936 3.258 
-0.23414 1.29519 3.262 
0.105134 1.28526 3.237 
0.176508 1.28764 3.243 
0.247383 1.28606 3.239 
0.319065 1.28844 3.245 
0.408094 1.28844 3.245 
0.45247 1.28804 3.244 
1.06952 1.28089 3.226 
1.31122 1.27494 3.211 
1.40374 1.27097 3.201 
1.44674 1.27017 3.199 
1.48876 1.26859 3.195 
1.72328 1.267 3.191 
-1.27889 1.30174 3.256 
-1.20891 1.30334 3.26 
-1.13049 1.30574 3.266 
-1.07837 1.29694 3.244 
-1.01826 1.29974 3.251 
-0.859557 1.30254 3.258 
-0.778631 1.30174 3.256 
-0.73374 1.30134 3.255 
-0.678904 1.29894 3.249 
-0.569824 1.29414 3.237 
-0.374904 1.29574 3.241 
-0.312275 1.29414 3.237 
-0.249953 1.29334 3.235 
0.0960147 1.29094 3.229 
0.139789 1.28615 3.217 
0.18432 1.28895 3.224 
0.245779 1.28655 3.218 
0.343643 1.28935 3.225 
0.413785 1.28735 3.22 
0.792184 1.28495 3.214 
1.29592 1.27735 3.195 
1.39103 1.27615 3.192 
1.42808 1.27015 3.177 
1.51286 1.26816 3.172 
1.68691 1.26816 3.172 
2.01571 1.26696 3.169 
-1.22475 1.30061 3.231 
-1.1712 1.30021 3.23 
-1.09144 1.30021 3.23 
-1.04486 1.29739 3.223 
-0.924779 1.30262 3.236 
-0.779341 1.29699 3.222 
-0.735598 1.29779 3.224 
-0.689655 1.29457 3.216 
-0.647345 1.29819 3.225 
-0.555571 1.29055 3.206 
-0.506089 1.299 3.227 
-0.372591 1.29658 3.221 
-0.309766 1.29256 3.211 
0.0778358 1.29216 3.21 
0.130067 1.28612 3.195 
0.183233 1.29014 3.205 
0.235625 1.28813 3.2 
0.306243 1.28974 3.204 
0.384515 1.28692 3.197 
0.699843 1.28612 3.195 
1.09927 1.28169 3.184 
1.20979 1.27847 3.176 
1.40149 1.27847 3.176 
1.47027 1.27766 3.174 
1.54718 1.27646 3.171 
1.6396 1.2672 3.148 
1.88203 1.2676 3.149 
-1.26161 1.30177 3.212 
-1.21792 1.30218 3.213 
-1.14178 1.30583 3.222 
-1.07106 1.30583 3.222 
-1.02654 1.30542 3.221 
-0.936128 1.30258 3.214 
-0.866123 1.30339 3.216 
-0.77547 1.29934 3.206 
-0.714344 1.30015 3.208 
-0.670337 1.30015 3.208 
-0.581778 1.29894 3.205 
-0.535966 1.29448 3.194 
-0.370046 1.2965 3.199 
-0.317485 1.29691 3.2 
-0.219598 1.28921 3.181 
0.138442 1.29124 3.186 
0.190469 1.2884 3.179 
0.269558 1.29124 3.186 
0.426228 1.28921 3.181 
1.09064 1.28029 3.159 
1.21198 1.28029 3.159 
1.46733 1.27624 3.149 
1.53871 1.27097 3.136 
1.58677 1.27502 3.146 
1.68712 1.27259 3.14 
-1.36546 1.30038 3.187 
-1.26528 1.30528 3.199 
-1.18109 1.29957 3.185 
-1.05332 1.30365 3.195 
-0.92972 1.30242 3.192 
-0.866785 1.29998 3.186 
-0.795356 1.29753 3.18 
-0.701584 1.30161 3.19 
-0.59525 1.29875 3.183 
-0.524727 1.29712 3.179 
-0.402873 1.29794 3.181 
-0.279984 1.29467 3.173 
0.0680827 1.29182 3.166 
0.163528 1.291 3.164 
0.206932 1.291 3.164 
0.33629 1.28774 3.156 
0.449281 1.28896 3.159 
1.15227 1.28039 3.138 
1.45615 1.27509 3.125 
1.50711 1.27468 3.124 
1.56811 1.27549 3.126 
1.7791 1.27305 3.12 
1.91955 1.26407 3.098 
-1.31966 1.30707 3.182 
-1.25499 1.30338 3.173 
-1.20162 1.30215 3.17 
-1.12955 1.29927 3.163 
-1.00285 1.30379 3.174 
-0.957497 1.30132 3.168 
-0.898919 1.30461 3.176 
-0.800793 1.30091 3.167 
-0.755913 1.29845 3.161 
-0.67636 1.29557 3.154 
-0.599618 1.29804 3.16 
-0.55715 1.30009 3.165 
-0.513083 1.29845 3.161 
-0.339525 1.29804 3.16 
0.0763324 1.29311 3.148 
0.265497 1.289 3.138 
0.334053 1.28777 3.135 
0.386521 1.29064 3.142 
0.497951 1.289 3.138 
1.43924 1.27627 3.107 
1.48233 1.27668 3.108 
1.55155 1.27052 3.093 
1.66033 1.27586 3.106 
-1.50708 1.30423 3.154 
-1.41784 1.30175 3.148 
-1.28331 1.30547 3.157 
-1.22539 1.30836 3.164 
-1.12705 1.30505 3.156 
-0.987565 1.30381 3.153 
-0.944612 1.30423 3.154 
-0.875108 1.30381 3.153 
-0.794472 1.29926 3.142 
-0.751609 1.29968 3.143 
-0.708944 1.3005 3.145 
-0.654665 1.29554 3.133 
-0.585712 1.29513 3.132 
-0.509674 1.29844 3.14 
-0.389314 1.29926 3.142 
-0.233551 1.29596 3.134 
0.0925951 1.28769 3.114 
0.178031 1.28769 3.114 
0.271573 1.28562 3.109 
0.332454 1.29017 3.12 
0.375254 1.29017 3.12 
0.468813 1.28851 3.116 
0.562852 1.28851 3.116 
0.707504 1.28727 3.113 
1.30631 1.27983 3.095 
1.47263 1.26949 3.07 
1.54007 1.27652 3.087 
1.62953 1.27363 3.08 
-1.49656 1.30372 3.132 
-1.3668 1.30289 3.13 
-1.27599 1.30664 3.139 
-1.1417 1.30081 3.125 
-1.06069 1.30664 3.139 
-0.882786 1.29831 3.119 
-0.815372 1.29998 3.123 
-0.77451 1.30331 3.131 
-0.703534 1.29914 3.121 
-0.589941 1.29415 3.109 
-0.480748 1.29873 3.12 
-0.412004 1.29789 3.118 
-0.257029 1.2929 3.106 
0.0834308 1.28666 3.091 
0.126484 1.29332 3.107 
0.202942 1.29165 3.103 
0.296494 1.29123 3.102 
0.346661 1.2879 3.094 
0.449395 1.2904 3.1 
0.684656 1.28499 3.087 
1.28523 1.27583 3.065 
1.45436 1.27666 3.067 
1.48912 1.27042 3.052 
1.60112 1.27292 3.058 
1.69456 1.26751 3.045 
-1.49843 1.30645 3.118 
-1.37778 1.30561 3.116 
-1.33289 1.30352 3.111 
-1.28663 1.30854 3.123 
-1.20874 1.30771 3.121 
-1.09496 1.30477 3.114 
-0.923495 1.30393 3.112 
-0.819983 1.30226 3.108 
-0.776597 1.301 3.105 
-0.691408 1.301 3.105 
-0.623057 1.30058 3.104 
-0.529379 1.30058 3.104 
-0.452588 1.30016 3.103 
-0.400861 1.29807 3.098 
-0.314539 1.29262 3.085 
-0.264525 1.29639 3.094 
0.0745138 1.28759 3.073 
0.116745 1.28843 3.075 
0.193238 1.2922 3.084 
0.286219 1.29178 3.083 
0.345093 1.29053 3.08 
0.621318 1.28508 3.067 
0.772277 1.28424 3.065 
1.37279 1.27963 3.054 
1.4561 1.27921 3.053 
1.5328 1.27335 3.039 
1.75929 1.26832 3.027 
-1.46992 1.30488 3.094 
-1.41807 1.30404 3.092 
-1.32947 1.30868 3.103 
-1.24233 1.30657 3.098 
-1.14327 1.30024 3.083 
-1.02884 1.3053 3.095 
-0.84942 1.30362 3.091 
-0.788778 1.30151 3.086 
-0.729039 1.30066 3.084 
-0.670244 1.30151 3.086 
-0.559813 1.30066 3.084 
-0.398403 1.29856 3.079 
-0.321014 1.29307 3.066 
-0.253967 1.29434 3.069 
0.107604 1.28843 3.055 
0.351591 1.29181 3.063 
0.975133 1.28295 3.042 
1.09162 1.28253 3.041 
1.23264 1.28169 3.039 
1.37408 1.27367 3.02 
1.45584 1.28 3.035 
1.49205 1.27536 3.024 
1.60448 1.27241 3.017 
1.64096 1.26861 3.008 
-1.44918 1.30997 3.086 
-1.36186 1.30743 3.08 
-1.29468 1.30785 3.081 
-1.16864 1.3087 3.083 
-1.03906 1.3053 3.075 
-0.907174 1.29766 3.057 
-0.849574 1.29936 3.061 
-0.801535 1.30318 3.07 
-0.757689 1.30021 3.063 
-0.666769 1.30318 3.07 
-0.531484 1.30191 3.067 
-0.455009 1.29979 3.062 
-0.403943 1.29766 3.057 
-0.337397 1.29979 3.062 
-0.286429 1.29724 3.056 
0.0739076 1.29384 3.048 
0.18238 1.29215 3.044 
0.357644 1.29172 3.043 
0.83883 1.28705 3.032 
1.00023 1.28068 3.017 
1.191 1.28111 3.018 
1.25058 1.27432 3.002 
1.41269 1.27941 3.014 
1.46667 1.27601 3.006 
1.51142 1.27899 3.013 
1.59225 1.27092 2.994 
1.94976 1.26837 2.988 
-1.40202 1.30605 3.057 
-1.31104 1.30733 3.06 
-1.23104 1.30263 3.049 
-1.04667 1.30221 3.048 
-0.996163 1.30178 3.047 
-0.873625 1.30605 3.057 
-0.822225 1.30434 3.053 
-0.779833 1.30349 3.051 
-0.736528 1.30092 3.045 
-0.577987 1.30135 3.046 
-0.519147 1.3005 3.044 
-0.433914 1.29537 3.032 
-0.385269 1.29964 3.042 
-0.267895 1.29708 3.036 
0.181541 1.29452 3.03 
0.346656 1.29024 3.02 
0.668909 1.28853 3.016 
0.856948 1.28512 3.008 
1.18548 1.28341 3.004 
1.36909 1.27785 2.991 
1.44536 1.27999 2.996 
1.52653 1.27914 2.994 
1.65672 1.27187 2.977 
-1.52566 1.30541 3.036 
-1.36533 1.31143 3.05 
-1.26036 1.3067 3.039 
-1.20754 1.30369 3.032 
-1.04357 1.3067 3.039 
-0.909571 1.30584 3.037 
-0.831008 1.30025 3.024 
-0.789786 1.30068 3.025 
-0.747794 1.29982 3.023 
-0.697569 1.29896 3.021 
-0.623592 1.30025 3.024 
-0.565141 1.29939 3.022 
-0.522819 1.29724 3.017 
-0.432483 1.29939 3.022 
-0.390639 1.2981 3.019 
-0.283055 1.29853 3.02 
0.0977609 1.29423 3.01 
0.155568 1.29423 3.01 
0.295368 1.29165 3.004 
0.377283 1.28993 3 
0.622126 1.28563 2.99 
0.84277 1.28434 2.987 
1.20134 1.28219 2.982 
1.4189 1.27918 2.975 
1.58214 1.27918 2.975 
-1.57405 1.30552 3.017 
-1.45518 1.31028 3.028 
-1.34273 1.30595 3.018 
-1.20237 1.30638 3.019 
-1.04464 1.30595 3.018 
-0.920136 1.30552 3.017 
-0.827161 1.30249 3.01 
-0.785086 1.30119 3.007 
-0.744578 1.30249 3.01 
-0.685858 1.30076 3.006 
-0.609598 1.29643 2.996 
-0.561027 1.29816 3 
-0.520566 1.29989 3.004 
-0.412322 1.29643 2.996 
-0.371967 1.29903 3.002 
-0.280993 1.29729 2.998 
-0.223565 1.29816 3 
0.121721 1.29383 2.99 
0.212029 1.29427 2.991 
0.252637 1.2921 2.986 
0.383715 1.2921 2.986 
0.611869 1.28951 2.98 
0.749348 1.28691 2.974 
1.1693 1.28215 2.963 
1.2433 1.28302 2.965 
1.42035 1.28128 2.961 
1.57641 1.27609 2.949 
1.66726 1.27133 2.938 
-1.53267 1.31379 3.017 
-1.44893 1.31292 3.015 
-1.34385 1.30726 3.002 
-1.19719 1.309 3.006 
-0.925514 1.29812 2.981 
-0.871758 1.30334 2.993 
-0.80445 1.30073 2.987 
-0.76373 1.30117 2.988 
-0.71526 1.30247 2.991 
-0.666246 1.30291 2.992 
-0.606139 1.29725 2.979 
-0.555978 1.29463 2.973 
-0.4932 1.30117 2.988 
-0.451303 1.29855 2.982 
-0.409983 1.29725 2.979 
-0.360701 1.29638 2.977 
-0.287868 1.29942 2.984 
-0.221776 1.29594 2.976 
0.0961045 1.28854 2.959 
0.161867 1.29507 2.974 
0.202392 1.29333 2.97 
0.251283 1.29333 2.97 
0.372378 1.28941 2.961 
0.461896 1.28984 2.962 
0.761805 1.28854 2.959 
1.06777 1.28549 2.952 
1.18362 1.27939 2.938 
1.25573 1.27896 2.937 
1.37948 1.27417 2.926 
1.4511 1.2807 2.941 
1.5341 1.27591 2.93 
1.62945 1.27504 2.928 
1.72016 1.27678 2.932 
-1.45041 1.30761 2.984 
-1.29399 1.30673 2.982 
-1.21626 1.30235 2.972 
-0.972624 1.30367 2.975 
-0.929934 1.30104 2.969 
-0.874678 1.30367 2.975 
-0.833026 1.30235 2.972 
-0.775687 1.30191 2.971 
-0.736168 1.30411 2.976 
-0.670623 1.30367 2.975 
-0.571136 1.30016 2.967 
-0.515368 1.30323 2.974 
-0.449184 1.3006 2.968 
-0.400326 1.3006 2.968 
-0.342284 1.29666 2.959 
-0.277712 1.29841 2.963 
-0.219839 1.29271 2.95 
0.111961 1.29227 2.949 
0.176389 1.29008 2.944 
0.21729 1.29315 2.951 
0.362409 1.29096 2.946 
0.451471 1.2914 2.947 
0.498457 1.28745 2.938 
0.699974 1.28745 2.938 
0.897196 1.28132 2.924 
1.17959 1.28307 2.928 
1.32373 1.28263 2.927 
1.38039 1.27562 2.911 
1.46026 1.27562 2.911 
1.50328 1.27825 2.917 
1.69869 1.27475 2.909 
-1.47052 1.31183 2.975 
-1.41291 1.31139 2.974 
-1.22442 1.31051 2.972 
-1.0899 1.30566 2.961 
-0.966086 1.30301 2.955 
-0.85316 1.30389 2.957 
-0.779353 1.30257 2.954 
-0.731468 1.30389 2.957 
-0.63197 1.29948 2.947 
-0.536034 1.30213 2.953 
-0.461863 1.2986 2.945 
-0.41212 1.29463 2.936 
-0.339276 1.29331 2.933 
-0.268036 1.29904 2.946 
0.0872131 1.29331 2.933 
0.159854 1.29507 2.937 
0.200075 1.29463 2.936 
0.288682 1.29463 2.936 
0.344128 1.2911 2.928 
0.384557 1.29199 2.93 
0.49693 1.29155 2.929 
0.543843 1.28846 2.922 
0.607769 1.28802 2.921 
0.703938 1.28802 2.921 
0.90367 1.28714 2.919 
1.13962 1.28229 2.908 
1.18626 1.28096 2.905 
1.33964 1.27523 2.892 
1.38629 1.27435 2.89 
1.44429 1.27655 2.895 
1.5163 1.27699 2.896 
1.59189 1.27391 2.889 
1.82554 1.27655 2.895 
-1.36495 1.30491 2.941 
-1.28184 1.31067 2.954 
-1.1587 1.3089 2.95 
-1.08033 1.30224 2.935 
-0.98605 1.30535 2.942 
-0.946014 1.30579 2.943 
-0.848832 1.30535 2.942 
-0.807924 1.30446 2.94 
-0.725036 1.30047 2.931 
-0.554078 1.29559 2.92 
-0.506876 1.29781 2.925 
-0.435543 1.30047 2.931 
-0.355491 1.3018 2.934 
-0.282755 1.30047 2.931 
-0.241802 1.29648 2.922 
0.0947079 1.29381 2.916 
0.173992 1.28849 2.904 
0.254889 1.2947 2.918 
0.317515 1.28893 2.905 
0.38272 1.29381 2.916 
0.428654 1.2876 2.902 
0.484888 1.28893 2.905 
0.55547 1.28627 2.899 
0.652261 1.28893 2.905 
0.779783 1.28893 2.905 
0.89624 1.2845 2.895 
1.01643 1.28583 2.898 
1.12775 1.28583 2.898 
1.16387 1.28183 2.889 
1.30992 1.2774 2.879 
1.41752 1.28183 2.889 
1.44807 1.27385 2.871 
1.6411 1.27695 2.878 
-1.4552 1.31431 2.944 
-1.34904 1.30539 2.924 
-1.2422 1.30271 2.918 
-1.15967 1.30896 2.932 
-1.10374 1.3094 2.933 
-0.981693 1.30762 2.929 
-0.850496 1.3036 2.92 
-0.810439 1.3036 2.92 
-0.673555 1.30226 2.917 
-0.586123 1.3036 2.92 
-0.496464 1.29958 2.911 
-0.432719 1.30003 2.912 
-0.391559 1.29601 2.903 
-0.312987 1.30047 2.913 
-0.264306 1.2969 2.905 
0.0859939 1.2911 2.892 
0.157622 1.29288 2.896 
0.197826 1.29601 2.903 
0.236667 1.29065 2.891 
0.283864 1.28887 2.887 
0.348674 1.29422 2.899 
0.395439 1.2911 2.892 
0.435262 1.29155 2.893 
0.482384 1.29021 2.89 
0.538073 1.29065 2.891 
0.578332 1.29199 2.894 
0.657277 1.2911 2.892 
0.813145 1.28663 2.882 
0.899185 1.2853 2.879 
0.993281 1.2844 2.877 
1.03167 1.28306 2.874 
1.16491 1.28217 2.872 
1.26205 1.27681 2.86 
1.32991 1.28172 2.871 
1.59666 1.27458 2.855 
-1.38013 1.30487 2.905 
-1.28047 1.30892 2.914 
-1.22703 1.31161 2.92 
-1.13734 1.30981 2.916 
-1.0038 1.30263 2.9 
-0.900055 1.30218 2.899 
-0.844962 1.30308 2.901 
-0.807386 1.30667 2.909 
-0.660304 1.29993 2.894 
-0.581105 1.30038 2.895 
-0.478015 1.30083 2.896 
-0.431085 1.30308 2.901 
-0.373947 1.29814 2.89 
-0.287423 1.30128 2.897 
-0.246228 1.29364 2.88 
-0.206433 1.29185 2.876 
0.109418 1.29454 2.882 
0.156207 1.28915 2.87 
0.219276 1.2896 2.871 
0.258931 1.29095 2.874 
0.305282 1.28691 2.865 
0.362443 1.29454 2.882 
0.432854 1.2923 2.877 
0.55068 1.29095 2.874 
0.637194 1.2905 2.873 
0.690924 1.2878 2.867 
0.817918 1.2896 2.871 
0.887881 1.28825 2.868 
0.980592 1.28601 2.863 
1.16874 1.27702 2.843 
1.24548 1.28376 2.858 
1.41303 1.27927 2.848 
1.45735 1.27702 2.843 
1.7482 1.27298 2.834 
-1.32342 1.31194 2.903 
-1.10761 1.31104 2.901 
-0.912171 1.30471 2.887 
-0.865246 1.30561 2.889 
-0.826472 1.30697 2.892 
-0.774825 1.30019 2.877 
-0.720572 1.302 2.881 
-0.671277 1.29838 2.873 
-0.634504 1.3038 2.885 
-0.577291 1.29974 2.876 
-0.51506 1.302 2.881 
-0.450101 1.29703 2.87 
-0.412591 1.3029 2.883 
-0.364245 1.29974 2.876 
-0.324453 1.29838 2.873 
-0.261031 1.29657 2.869 
-0.221519 1.29567 2.867 
0.116103 1.28889 2.852 
0.155282 1.28934 2.853 
0.225887 1.29025 2.855 
0.264588 1.28799 2.85 
0.304004 1.28934 2.853 
0.382681 1.2907 2.856 
0.430146 1.29205 2.859 
0.547614 1.2916 2.858 
0.632758 1.28934 2.853 
0.671895 1.28934 2.853 
0.719616 1.2907 2.856 
0.833048 1.28437 2.842 
0.906084 1.28844 2.851 
1.08218 1.28392 2.841 
1.2541 1.28437 2.842 
1.39386 1.27669 2.825 
1.49833 1.27985 2.832 
1.85115 1.27669 2.825 
-1.16502 1.30308 2.866 
-0.953712 1.30445 2.869 
-0.888257 1.30081 2.861 
-0.8499 1.30217 2.864 
-0.789787 1.30672 2.874 
-0.746445 1.2999 2.859 
-0.699137 1.29944 2.858 
-0.653687 1.30263 2.865 
-0.598664 1.30263 2.865 
-0.525525 1.29672 2.852 
-0.454943 1.29626 2.851 
-0.417875 1.30263 2.865 
-0.369677 1.29899 2.857 
-0.322421 1.29808 2.855 
-0.266653 1.29353 2.845 
-0.227625 1.29353 2.845 
0.130921 1.28853 2.834 
0.193533 1.29126 2.84 
0.233393 1.29626 2.851 
0.279341 1.29171 2.841 
0.388055 1.29035 2.838 
0.427137 1.29081 2.839 
0.487898 1.28671 2.83 
0.575737 1.29217 2.842 
0.668363 1.29035 2.838 
0.827772 1.28399 2.824 
0.953087 1.2858 2.828 
1.01013 1.27944 2.814 
1.16134 1.28444 2.825 
1.25719 1.27944 2.814 
1.3213 1.28171 2.819 
1.40587 1.28126 2.818 
1.59916 1.28126 2.818 
-1.34712 1.30454 2.852 
-1.16095 1.30637 2.856 
-0.972557 1.30591 2.855 
-0.886084 1.30546 2.854 
-0.835281 1.29951 2.841 
-0.77374 1.30088 2.844 
-0.733693 1.29905 2.84 
-0.650721 1.30454 2.852 
-0.609667 1.30042 2.843 
-0.554091 1.29814 2.838 
-0.476731 1.29951 2.841 
-0.438066 1.30042 2.843 
-0.374609 1.29676 2.835 
-0.336666 1.30042 2.843 
-0.258756 1.30088 2.844 
0.145904 1.29128 2.823 
0.231346 1.29265 2.826 
0.308552 1.29128 2.823 
0.370645 1.29173 2.824 
0.417723 1.29356 2.828 
0.469699 1.28716 2.814 
0.525045 1.29036 2.821 
0.59428 1.28945 2.819 
0.680562 1.29173 2.824 
0.772989 1.29082 2.822 
0.848906 1.28853 2.817 
0.936971 1.28213 2.803 
1.01641 1.28533 2.81 
1.11067 1.27847 2.795 
1.2717 1.27847 2.795 
1.38104 1.2803 2.799 
1.48908 1.28076 2.8 
1.83456 1.27527 2.788 
-1.17783 1.30684 2.84 
-0.975239 1.30684 2.84 
-0.877701 1.30086 2.827 
-0.838921 1.30086 2.827 
-0.775772 1.29902 2.823 
-0.738874 1.30224 2.83 
-0.653004 1.30132 2.828 
-0.606022 1.3004 2.826 
-0.550381 1.29718 2.819 
-0.467451 1.30316 2.832 
-0.428904 1.30408 2.834 
-0.373552 1.30086 2.827 
-0.318016 1.2958 2.816 
-0.257391 1.30178 2.829 
0.114149 1.29028 2.804 
0.15305 1.29396 2.812 
0.253525 1.29488 2.814 
0.314281 1.29074 2.805 
0.352257 1.2889 2.801 
0.390541 1.28844 2.8 
0.474196 1.28614 2.795 
0.530707 1.29304 2.81 
0.589643 1.28706 2.797 
0.675742 1.29028 2.804 
0.791138 1.29028 2.804 
0.858841 1.28798 2.799 
0.910314 1.28476 2.792 
0.965661 1.28706 2.797 
1.02668 1.2866 2.796 
1.17926 1.28568 2.794 
1.27783 1.27693 2.775 
1.36109 1.27647 2.774 
1.62805 1.27693 2.775 
-1.16953 1.30538 2.82 
-0.99861 1.30445 2.818 
-0.881072 1.30214 2.813 
-0.83536 1.30306 2.815 
-0.760013 1.3063 2.822 
-0.648155 1.29936 2.807 
-0.611386 1.30306 2.815 
-0.572566 1.3026 2.814 
-0.533395 1.30121 2.811 
-0.46415 1.30167 2.812 
-0.416374 1.29704 2.802 
-0.363208 1.29936 2.807 
-0.323429 1.29427 2.796 
-0.2777 1.29566 2.799 
-0.238876 1.29334 2.794 
0.129351 1.29612 2.8 
0.167342 1.29288 2.793 
0.220191 1.28825 2.783 
0.258739 1.2901 2.787 
0.305492 1.2938 2.795 
0.342603 1.28918 2.785 
0.395521 1.28732 2.781 
0.478761 1.28547 2.777 
0.52693 1.29149 2.79 
0.57101 1.28732 2.781 
0.632731 1.28871 2.784 
0.668994 1.28501 2.776 
0.732816 1.2901 2.787 
0.854238 1.28871 2.784 
0.891147 1.28686 2.78 
0.963243 1.28131 2.768 
1.05245 1.28825 2.783 
1.2017 1.28455 2.775 
1.24423 1.28131 2.768 
1.30404 1.28038 2.766 
1.40417 1.27483 2.754 
1.56319 1.28131 2.768 
-1.1992 1.31172 2.817 
-1.00063 1.30473 2.802 
-0.934764 1.30939 2.812 
-0.863175 1.30613 2.805 
-0.729214 1.30054 2.793 
-0.622156 1.30101 2.794 
-0.575544 1.29961 2.791 
-0.484175 1.30101 2.794 
-0.444252 1.29635 2.784 
-0.338286 1.30008 2.792 
-0.292326 1.30008 2.792 
-0.230714 1.29821 2.788 
0.135614 1.2903 2.771 
0.211486 1.28937 2.769 
0.257625 1.29216 2.775 
0.317615 1.28843 2.767 
0.387333 1.29309 2.777 
0.431176 1.2875 2.765 
0.500173 1.28937 2.769 
0.552153 1.28657 2.763 
0.627049 1.28471 2.759 
0.680036 1.28471 2.759 
0.75765 1.28797 2.766 
0.86483 1.28937 2.769 
0.95116 1.28285 2.755 
1.00808 1.28797 2.766 
1.04413 1.28564 2.761 
1.11271 1.28611 2.762 
1.19885 1.28098 2.751 
1.25786 1.27959 2.748 
1.34588 1.27726 2.743 
1.5226 1.274 2.736 
-1.2404 1.30586 2.788 
-1.10786 1.31195 2.801 
-0.971983 1.30493 2.786 
-0.908219 1.30118 2.778 
-0.786554 1.30165 2.779 
-0.725036 1.30071 2.777 
-0.579022 1.2979 2.771 
-0.518763 1.29931 2.774 
-0.403289 1.29509 2.765 
-0.328495 1.29931 2.774 
-0.244865 1.29977 2.775 
0.149893 1.28994 2.754 
0.25549 1.289 2.752 
0.330873 1.28853 2.751 
0.384683 1.29181 2.758 
0.42946 1.28994 2.754 
0.495837 1.28572 2.745 
0.564439 1.2876 2.749 
0.604121 1.29181 2.758 
0.6756 1.28385 2.741 
0.777877 1.29134 2.757 
0.829017 1.28853 2.751 
0.868016 1.29041 2.755 
0.952107 1.28151 2.736 
0.990725 1.28291 2.739 
1.03055 1.28572 2.745 
1.07535 1.28525 2.744 
1.16611 1.28572 2.745 
1.33901 1.27823 2.729 
1.40382 1.27589 2.724 
1.66784 1.27776 2.728 
-1.0207 1.30644 2.773 
-0.951545 1.3055 2.771 
-0.860315 1.3055 2.771 
-0.682241 1.29938 2.758 
-0.539253 1.30126 2.762 
-0.486384 1.30173 2.763 
-0.440422 1.30032 2.76 
-0.372136 1.29985 2.759 
-0.265004 1.2942 2.747 
0.0965795 1.29184 2.742 
0.13395 1.28948 2.737 
0.171558 1.28996 2.738 
0.239778 1.29325 2.745 
0.330873 1.29608 2.751 
0.3662 1.2876 2.733 
0.434477 1.28996 2.738 
0.509597 1.28996 2.738 
0.548756 1.29372 2.746 
0.584076 1.28854 2.735 
0.620004 1.28524 2.728 
0.682621 1.29043 2.739 
0.736298 1.29231 2.743 
0.79389 1.28807 2.734 
0.832308 1.28948 2.737 
0.92653 1.28477 2.727 
0.972489 1.28619 2.73 
1.04739 1.28619 2.73 
1.08793 1.281 2.719 
1.21306 1.28713 2.732 
1.30234 1.27912 2.715 
1.421 1.27865 2.714 
1.49822 1.281 2.719 
1.6456 1.27959 2.716 
-1.11678 1.31074 2.766 
-1.02164 1.30552 2.755 
-0.973805 1.30221 2.748 
-0.864785 1.30837 2.761 
-0.549791 1.29794 2.739 
-0.474298 1.29699 2.737 
-0.256155 1.2951 2.733 
0.0884395 1.29036 2.723 
0.125747 1.28989 2.722 
0.170932 1.29273 2.728 
0.223078 1.29131 2.725 
0.260077 1.28941 2.721 
0.336453 1.29605 2.735 
0.37192 1.28894 2.72 
0.445889 1.28704 2.716 
0.519831 1.28562 2.713 
0.572145 1.28609 2.714 
0.609825 1.28704 2.716 
0.649227 1.29131 2.725 
0.71704 1.29225 2.727 
0.753619 1.29083 2.724 
0.796994 1.28846 2.719 
0.878729 1.28799 2.718 
0.940623 1.28088 2.703 
0.978065 1.28136 2.704 
1.0542 1.28372 2.709 
1.21456 1.28041 2.702 
1.34501 1.27756 2.696 
-1.14429 1.30641 2.741 
-1.02322 1.30546 2.739 
-0.966265 1.30975 2.748 
-0.817925 1.30164 2.731 
-0.676799 1.30403 2.736 
-0.479518 1.29831 2.724 
-0.277325 1.2964 2.72 
0.0881472 1.29354 2.714 
0.147607 1.29259 2.712 
0.185219 1.29545 2.718 
0.22937 1.29211 2.711 
0.28102 1.2902 2.707 
0.35542 1.29068 2.708 
0.392713 1.29116 2.709 
0.467382 1.29211 2.711 
0.524553 1.28639 2.699 
0.563451 1.29068 2.708 
0.59949 1.2883 2.703 
0.661255 1.29306 2.713 
0.711518 1.28973 2.706 
0.745872 1.28496 2.696 
0.784308 1.28734 2.701 
0.836181 1.28734 2.701 
0.942363 1.29068 2.708 
0.983661 1.28639 2.699 
1.04603 1.28115 2.688 
1.16532 1.28258 2.691 
1.70819 1.27448 2.674 
-0.807762 1.30482 2.722 
-0.678803 1.30099 2.714 
-0.394976 1.29811 2.708 
-0.283112 1.29619 2.704 
0.0874651 1.29092 2.693 
0.183379 1.28996 2.691 
0.235061 1.28996 2.691 
0.272077 1.29044 2.692 
0.331778 1.29284 2.697 
0.376593 1.29428 2.7 
0.434402 1.28996 2.691 
0.471492 1.29044 2.692 
0.529002 1.28661 2.684 
0.581846 1.28948 2.69 
0.633508 1.28948 2.69 
0.69863 1.28709 2.685 
0.752431 1.29092 2.693 
0.789373 1.29092 2.693 
0.828751 1.28325 2.677 
0.878035 1.29092 2.693 
0.929064 1.28996 2.691 
0.964544 1.28804 2.687 
1.06077 1.28852 2.688 
1.15277 1.28421 2.679 
1.37908 1.28277 2.676 
-0.865275 1.30891 2.715 
-0.766176 1.30506 2.707 
-0.415724 1.30072 2.698 
-0.340815 1.29734 2.691 
-0.229984 1.29686 2.69 
0.146138 1.29445 2.685 
0.204688 1.29204 2.68 
0.263511 1.29204 2.68 
0.314158 1.28867 2.673 
0.381441 1.29301 2.682 
0.431981 1.29011 2.676 
0.476388 1.29108 2.678 
0.526242 1.28722 2.67 
0.57233 1.29204 2.68 
0.621007 1.28626 2.668 
0.694987 1.2877 2.671 
0.740616 1.29059 2.677 
0.782925 1.2877 2.671 
0.817724 1.28481 2.665 
0.922159 1.2877 2.671 
0.959159 1.28818 2.672 
1.00314 1.28818 2.672 
1.09721 1.28674 2.669 
1.17909 1.28818 2.672 
1.309 1.27902 2.653 
-1.15895 1.31152 2.705 
-0.844113 1.30667 2.695 
-0.436145 1.30279 2.687 
-0.353467 1.29697 2.675 
0.0864908 1.29115 2.663 
0.145213 1.29358 2.668 
0.181948 1.29455 2.67 
0.263216 1.29794 2.677 
0.363853 1.29018 2.661 
0.423528 1.29406 2.669 
0.489799 1.29503 2.671 
0.544933 1.28679 2.654 
0.605231 1.29115 2.663 
0.647362 1.28776 2.656 
0.711871 1.28582 2.652 
0.74938 1.28776 2.656 
0.80069 1.28824 2.657 
0.862711 1.28291 2.646 
0.923572 1.28679 2.654 
1.02319 1.28388 2.648 
1.09064 1.2863 2.653 
1.21437 1.2863 2.653 
1.40045 1.28339 2.647 
-0.970678 1.30528 2.677 
-0.647032 1.30431 2.675 
-0.395273 1.29699 2.66 
-0.352013 1.29895 2.664 
